ply
format ascii 1.0
element vertex 474
property float x
property float y
property float z
property uchar blue
property uchar green
property uchar red
end_header
-137.903880 67.576055 15.357986 0 255 0 
-137.903880 67.576055 15.357986 0 255 0 
-151.131070 155.286911 58.767265 0 255 0 
-144.869315 69.112315 10.180387 0 255 0 
-136.694455 67.988103 17.626232 0 255 0 
-137.038389 64.394058 9.007416 0 255 0 
-239.745568 4.872166 38.815428 0 255 0 
-239.745568 4.872166 38.815428 0 255 0 
-14.437828 79.507783 19.952310 0 255 0 
-221.713580 -21.325021 22.160155 0 255 0 
-221.713580 -21.325021 22.160155 0 255 0 
-106.973420 -3.524452 23.426449 0 255 0 
-133.494777 -14.137198 -8.995778 0 255 0 
-105.696302 -13.346880 21.395878 0 255 0 
58.845040 0.250632 19.802465 0 255 0 
20.975376 -18.327532 -20.744291 0 255 0 
239.993575 35.922958 -8.112579 0 255 0 
-149.987724 -124.615649 -32.927639 0 255 0 
-149.987724 -124.615649 -32.927639 0 255 0 
-138.906446 -131.900246 -81.166203 0 255 0 
-124.569919 -153.011553 -81.670953 0 255 0 
-118.826997 -156.550264 -84.012750 0 255 0 
-122.352705 -161.952005 -72.282497 0 255 0 
-122.352705 -161.952005 -72.282497 0 255 0 
-181.069178 -221.102129 9.566080 0 255 0 
202.910466 -220.164582 -12.647158 0 255 0 
-15.421845 228.260621 69.594036 0 255 0 
-6.904393 225.310375 58.945860 0 255 0 
-155.320284 151.525126 27.469263 0 255 0 
-143.536438 146.650042 49.917922 0 255 0 
-143.201527 140.206944 30.312102 0 255 0 
-134.667722 137.778789 42.701242 0 255 0 
-134.667722 137.778789 42.701242 0 255 0 
-146.334855 129.892117 39.567618 0 255 0 
-119.982854 122.356397 5.789829 0 255 0 
48.018634 177.203094 54.328587 0 255 0 
-105.267580 110.624203 -12.451350 0 255 0 
-159.586004 93.328508 64.258758 0 255 0 
-101.242913 105.129833 -21.836522 0 255 0 
-96.596550 99.673464 -22.836921 0 255 0 
63.656568 156.767321 23.262036 0 255 0 
-111.770324 86.853599 12.814369 0 255 0 
-147.943994 73.656182 18.595622 0 255 0 
-128.134586 49.254760 -3.731328 0 255 0 
-234.950025 7.912875 66.104387 0 255 0 
28.197501 83.985728 37.957905 0 255 0 
15.696787 75.795328 -16.051570 0 255 0 
18.369792 69.566738 -31.755659 0 255 0 
-103.543979 13.865165 -1.090482 0 255 0 
-103.543979 13.865165 -1.090482 0 255 0 
-132.235710 -3.617140 46.028546 0 255 0 
-205.533234 -38.267444 11.226023 0 255 0 
-132.219874 -10.704432 23.848686 0 255 0 
-132.219874 -10.704432 23.848686 0 255 0 
-132.219874 -10.704432 23.848686 0 255 0 
-116.243733 -9.097942 31.148786 0 255 0 
-123.954696 -13.332506 2.643167 0 255 0 
-122.508714 -19.173745 -17.871060 0 255 0 
-194.434567 -54.612909 -6.521381 0 255 0 
-187.528902 -68.280062 -34.941423 0 255 0 
-182.293932 -70.745381 -21.084837 0 255 0 
-169.865153 -88.281603 -37.996444 0 255 0 
-166.471109 -93.695870 -34.351559 0 255 0 
286.997573 73.777248 24.883687 0 255 0 
286.997573 73.777248 24.883687 0 255 0 
252.706940 63.962840 0.471541 0 255 0 
227.574693 30.030822 -23.049023 0 255 0 
-141.899203 -124.270198 -39.777954 0 255 0 
138.933762 -23.721768 -16.198146 0 255 0 
-134.699628 -136.979970 -69.292333 0 255 0 
123.661996 -35.394030 -36.173990 0 255 0 
108.859602 -45.672878 -34.664885 0 255 0 
84.789003 -61.099094 -61.928177 0 255 0 
84.789003 -61.099094 -61.928177 0 255 0 
79.028963 -65.314212 -58.470935 0 255 0 
74.103576 -69.013106 -54.005065 0 255 0 
74.103576 -69.013106 -54.005065 0 255 0 
74.103576 -69.013106 -54.005065 0 255 0 
81.650838 -71.448799 -54.659191 0 255 0 
81.650838 -71.448799 -54.659191 0 255 0 
33.743379 -93.174948 -31.480970 0 255 0 
-118.574638 -156.624943 -82.217484 0 255 0 
-93.456783 -163.237100 -56.213808 0 255 0 
-111.845718 -173.467479 -91.340312 0 255 0 
-111.845718 -173.467479 -91.340312 0 255 0 
-104.667241 -173.420398 -73.485690 0 255 0 
-108.310265 -180.016535 -73.136667 0 255 0 
-176.410006 -198.932596 -1.353347 0 255 0 
-187.076873 -215.984749 -38.291158 0 255 0 
-183.302719 -216.801510 -15.120248 0 255 0 
-183.302719 -216.801510 -15.120248 0 255 0 
-162.735778 -218.850631 -23.891897 0 255 0 
88.039450 -212.423664 -36.647863 0 255 0 
171.244397 -213.645621 -33.491033 0 255 0 
-38.994667 214.030845 67.632593 0 255 0 
-72.002248 196.403860 59.312793 0 255 0 
-75.615361 194.411991 32.392102 0 255 0 
-100.346589 181.656741 63.455777 0 255 0 
-2.682431 218.758216 38.073167 0 255 0 
-126.942871 167.095427 59.641422 0 255 0 
-130.004094 165.389304 32.099376 0 255 0 
21.783270 205.088888 4.594008 0 255 0 
40.502936 195.467457 -12.609778 0 255 0 
-124.994030 127.929791 33.391564 0 255 0 
-124.994030 127.929791 33.391564 0 255 0 
-107.844431 117.535081 16.562261 0 255 0 
-58.384971 127.184497 13.750205 0 255 0 
-163.075765 91.650606 48.393811 0 255 0 
59.595183 160.076356 23.241057 0 255 0 
59.595183 160.076356 23.241057 0 255 0 
-148.619712 81.709459 49.647298 0 255 0 
-148.619712 81.709459 49.647298 0 255 0 
60.808648 153.544515 27.025158 0 255 0 
60.808648 153.544515 27.025158 0 255 0 
-50.886621 98.408031 15.789625 0 255 0 
-119.419251 67.059744 48.221480 0 255 0 
-239.661953 12.796387 63.073109 0 255 0 
-239.661953 12.796387 63.073109 0 255 0 
-116.800669 51.875159 11.603051 0 255 0 
-120.781976 50.518302 -7.545068 0 255 0 
-120.781976 50.518302 -7.545068 0 255 0 
108.654762 127.584122 59.108366 0 255 0 
-225.482009 -4.572329 50.428859 0 255 0 
-225.482009 -4.572329 50.428859 0 255 0 
-113.948816 34.072948 -3.929520 0 255 0 
-113.948816 34.072948 -3.929520 0 255 0 
133.354807 125.325587 51.597899 0 255 0 
122.225736 118.351210 35.030613 0 255 0 
122.225736 118.351210 35.030613 0 255 0 
68.478486 78.758205 -18.855936 0 255 0 
158.405340 116.418547 34.090212 0 255 0 
-203.750157 -31.199984 25.919696 0 255 0 
-174.263307 -81.381692 -22.490959 0 255 0 
2.932254 -24.377886 -5.088759 0 255 0 
279.731841 70.739007 13.982985 0 255 0 
279.731841 70.739007 13.982985 0 255 0 
-154.842291 -108.080874 -48.149115 0 255 0 
294.724471 60.191044 -24.826830 0 255 0 
280.438863 51.088866 -17.361772 0 255 0 
235.360598 33.144107 -25.007272 0 255 0 
189.938348 6.649815 -37.209620 0 255 0 
-133.728648 -129.050216 -66.089902 0 255 0 
-133.728648 -129.050216 -66.089902 0 255 0 
60.650368 -72.228034 -33.130952 0 255 0 
-117.639640 -149.273614 -72.527910 0 255 0 
-79.363050 -146.255353 -49.778948 0 255 0 
-97.524798 -171.511606 -64.022196 0 255 0 
254.672222 -31.692451 8.400537 0 255 0 
254.672222 -31.692451 8.400537 0 255 0 
-108.539448 -186.499660 -51.506932 0 255 0 
227.254857 -126.509645 9.123400 0 255 0 
227.254857 -126.509645 9.123400 0 255 0 
211.328738 -174.162908 -10.707339 0 255 0 
211.328738 -174.162908 -10.707339 0 255 0 
199.110358 -182.579314 -23.017376 0 255 0 
177.111257 -218.689857 -56.332881 0 255 0 
177.111257 -218.689857 -56.332881 0 255 0 
-88.677294 184.178159 60.146108 0 255 0 
-88.677294 184.178159 60.146108 0 255 0 
-117.143588 168.423046 66.252443 0 255 0 
-117.143588 168.423046 66.252443 0 255 0 
-144.568973 154.274807 62.022257 0 255 0 
-144.568973 154.274807 62.022257 0 255 0 
14.650241 211.373025 32.805402 0 255 0 
71.158614 183.443287 8.274669 0 255 0 
-79.451493 101.377040 -16.865489 0 255 0 
45.952802 136.016298 35.045219 0 255 0 
45.952802 136.016298 35.045219 0 255 0 
-44.522839 89.153988 10.654586 0 255 0 
-44.522839 89.153988 10.654586 0 255 0 
-118.346151 60.875769 35.153164 0 255 0 
-118.346151 60.875769 35.153164 0 255 0 
-241.893955 12.136026 52.028041 0 255 0 
-241.893955 12.136026 52.028041 0 255 0 
35.096696 107.083248 39.203872 0 255 0 
-15.004761 82.971222 19.150559 0 255 0 
-107.544778 43.280734 8.090513 0 255 0 
-231.236360 0.817729 48.918726 0 255 0 
20.047609 85.012757 11.374144 0 255 0 
10.865264 82.041637 -12.965385 0 255 0 
-103.344147 35.030136 -28.102654 0 255 0 
-103.344147 35.030136 -28.102654 0 255 0 
-13.395461 67.428217 8.833240 0 255 0 
43.700736 90.048198 -5.302388 0 255 0 
43.700736 90.048198 -5.302388 0 255 0 
21.017934 75.074925 -16.621643 0 255 0 
-220.868776 -12.275935 39.620616 0 255 0 
106.491010 97.354671 25.194955 0 255 0 
-209.342236 -24.978836 33.842140 0 255 0 
-128.141452 3.269951 38.848325 0 255 0 
-128.141452 3.269951 38.848325 0 255 0 
-138.631637 -9.138133 10.909095 0 255 0 
-197.148123 -40.473607 25.840315 0 255 0 
-112.051573 -15.706314 12.039599 0 255 0 
89.755397 60.839082 24.884952 0 255 0 
89.755397 60.839082 24.884952 0 255 0 
-185.602720 -56.127510 7.638716 0 255 0 
-185.602720 -56.127510 7.638716 0 255 0 
80.149170 18.966148 25.612494 0 255 0 
5.829877 -13.809361 -4.884255 0 255 0 
16.775229 -14.069664 -13.896434 0 255 0 
33.125600 -8.464283 -20.959985 0 255 0 
56.479306 -8.852395 -6.473319 0 255 0 
277.941511 70.122357 8.526367 0 255 0 
277.941511 70.122357 8.526367 0 255 0 
282.088609 60.981450 -4.937998 0 255 0 
282.088609 60.981450 -4.937998 0 255 0 
274.896028 58.505320 -14.261512 0 255 0 
235.534523 41.584042 -10.566434 0 255 0 
222.528583 34.170479 -42.201270 0 255 0 
211.106148 25.293206 -6.430943 0 255 0 
183.787852 10.571238 -47.455127 0 255 0 
173.347527 0.993351 -23.083456 0 255 0 
173.347527 0.993351 -23.083456 0 255 0 
159.133884 -5.709422 -19.378246 0 255 0 
146.798628 -13.499454 -47.597039 0 255 0 
106.477359 -38.363700 -57.818445 0 255 0 
85.838618 -53.216252 -50.790830 0 255 0 
68.945946 -63.740462 -61.948299 0 255 0 
268.700338 12.262662 10.718043 0 255 0 
268.700338 12.262662 10.718043 0 255 0 
30.593344 -87.612743 -70.835623 0 255 0 
2.245521 -105.853655 -43.651224 0 255 0 
-21.511953 -120.017115 -79.590791 0 255 0 
-100.896703 -165.086930 -67.274763 0 255 0 
-86.153293 -178.521230 -116.086899 0 255 0 
234.135498 -52.175092 2.288110 0 255 0 
239.721586 -78.557329 10.601776 0 255 0 
239.721586 -78.557329 10.601776 0 255 0 
9.292682 -195.720623 -95.047534 0 255 0 
162.117153 -209.237160 -23.274737 0 255 0 
176.443979 -225.581840 -19.197902 0 255 0 
-58.324429 198.229467 60.332821 0 255 0 
51.878017 193.919606 11.611897 0 255 0 
-93.311919 103.877558 -7.245157 0 255 0 
-128.827683 54.857855 0.513467 0 255 0 
99.024113 135.592694 68.756737 0 255 0 
-4.646254 77.981461 4.654105 0 255 0 
123.185883 129.080698 58.560939 0 255 0 
-222.246500 -13.264372 30.733770 0 255 0 
-94.843028 23.083049 -38.802873 0 255 0 
144.986613 121.711821 42.277681 0 255 0 
-87.128340 10.360963 7.678988 0 255 0 
-122.493455 -9.223463 13.460582 0 255 0 
-122.493455 -9.223463 13.460582 0 255 0 
-30.412999 1.420536 -5.626508 0 255 0 
-30.412999 1.420536 -5.626508 0 255 0 
46.850932 -1.408333 2.362256 0 255 0 
46.850932 -1.408333 2.362256 0 255 0 
1.451613 -23.958297 -13.957779 0 255 0 
72.390317 -6.044631 -21.647161 0 255 0 
43.978685 -14.151095 -29.279693 0 255 0 
276.560247 69.539141 3.905656 0 255 0 
262.447528 60.654786 -26.008832 0 255 0 
204.590555 27.755077 37.417957 0 255 0 
204.590555 27.755077 37.417957 0 255 0 
88.184722 -42.385795 -15.927715 0 255 0 
-40.386852 -127.588948 -12.130592 0 255 0 
-40.386852 -127.588948 -12.130592 0 255 0 
-68.656889 -150.129084 -82.933291 0 255 0 
-65.325388 -162.572457 -74.156504 0 255 0 
-176.685272 -217.347635 25.459126 0 255 0 
239.460914 -78.410530 9.475127 0 255 0 
239.460914 -78.410530 9.475127 0 255 0 
-5.482879 -192.283259 -52.747066 0 255 0 
-5.482879 -192.283259 -52.747066 0 255 0 
15.333635 -197.660701 -120.367213 0 255 0 
43.043309 -200.705219 -34.277272 0 255 0 
205.800050 -190.377384 -33.847283 0 255 0 
180.649926 -217.424086 -39.855515 0 255 0 
180.649926 -217.424086 -39.855515 0 255 0 
-28.148150 144.858911 50.663852 0 255 0 
-141.520444 61.215887 -5.730160 0 255 0 
-141.520444 61.215887 -5.730160 0 255 0 
-130.506629 69.647401 49.499452 0 255 0 
-231.011995 14.159114 79.021153 0 255 0 
60.952006 121.977530 56.889554 0 255 0 
30.865901 96.833583 15.471476 0 255 0 
30.865901 96.833583 15.471476 0 255 0 
10.232018 65.969481 -22.466738 0 255 0 
63.449619 75.564185 -25.140631 0 255 0 
63.449619 75.564185 -25.140631 0 255 0 
-71.058090 19.906047 23.978283 0 255 0 
-71.058090 19.906047 23.978283 0 255 0 
170.799212 112.596949 32.275412 0 255 0 
-44.012508 21.231414 -26.157536 0 255 0 
-136.526880 -10.801714 6.230106 0 255 0 
-136.526880 -10.801714 6.230106 0 255 0 
99.505989 78.284150 -5.412438 0 255 0 
196.250598 103.308708 20.533015 0 255 0 
224.351185 95.287461 19.013518 0 255 0 
-86.118709 -38.196539 35.451910 0 255 0 
-162.002051 -96.144213 9.167242 0 255 0 
-162.002051 -96.144213 9.167242 0 255 0 
-131.372434 -140.498712 -25.638573 0 255 0 
9.870709 -96.097130 2.261060 0 255 0 
-114.533860 -160.405570 -56.449641 0 255 0 
-63.458530 -161.948706 -73.295319 0 255 0 
-48.775321 -183.613710 -48.096381 0 255 0 
-48.775321 -183.613710 -48.096381 0 255 0 
87.673972 -201.187627 15.221264 0 255 0 
87.673972 -201.187627 15.221264 0 255 0 
135.909052 -216.281820 -5.485679 0 255 0 
-19.916067 211.745652 41.332902 0 255 0 
-19.916067 211.745652 41.332902 0 255 0 
34.969410 187.653097 17.337818 0 255 0 
55.701360 181.049478 29.277983 0 255 0 
55.701360 181.049478 29.277983 0 255 0 
35.324324 167.374341 14.647100 0 255 0 
55.628760 153.109796 15.118915 0 255 0 
-63.521114 94.305398 14.431426 0 255 0 
41.523444 123.434358 12.761495 0 255 0 
-161.080659 48.992738 105.334011 0 255 0 
-29.181814 82.450494 12.085977 0 255 0 
11.769821 87.906537 31.114196 0 255 0 
50.000132 92.018806 20.098323 0 255 0 
50.000132 92.018806 20.098323 0 255 0 
-40.946050 56.716623 16.772980 0 255 0 
75.233249 92.693730 9.638399 0 255 0 
75.233249 92.693730 9.638399 0 255 0 
-147.607060 7.674971 68.872228 0 255 0 
-50.981666 7.508442 -1.072481 0 255 0 
-113.734487 -34.645978 2.571852 0 255 0 
-175.627662 -73.603240 10.995175 0 255 0 
63.911316 9.470354 -2.322287 0 255 0 
254.632261 39.264492 -19.285699 0 255 0 
74.191199 -63.518660 -53.828251 0 255 0 
168.291878 -222.079874 -87.847873 0 255 0 
199.240173 -219.799821 -32.884029 0 255 0 
-2.115211 149.698617 20.989430 0 255 0 
32.110345 139.971249 25.811507 0 255 0 
-39.421907 110.072009 -0.692066 0 255 0 
89.348007 114.939046 51.886294 0 255 0 
89.348007 114.939046 51.886294 0 255 0 
-57.539773 36.905119 8.273492 0 255 0 
75.472337 69.854060 30.287541 0 255 0 
75.472337 69.854060 30.287541 0 255 0 
265.598702 -6.056113 -28.219051 0 255 0 
250.557093 -47.028661 -24.862819 0 255 0 
-24.512198 -188.449187 -62.686151 0 255 0 
235.356853 -99.424248 -21.153257 0 255 0 
235.356853 -99.424248 -21.153257 0 255 0 
36.787918 72.198484 13.366817 0 255 0 
36.787918 72.198484 13.366817 0 255 0 
136.785105 100.280924 24.258603 0 255 0 
136.785105 100.280924 24.258603 0 255 0 
-25.985719 23.749918 9.869154 0 255 0 
85.471219 43.532834 14.255232 0 255 0 
-15.218300 -11.164359 15.819919 0 255 0 
-98.560963 -139.616225 -23.026271 0 255 0 
-71.376613 -179.752547 -35.951182 0 255 0 
24.163495 -198.309334 -48.419807 0 255 0 
24.163495 -198.309334 -48.419807 0 255 0 
72.320177 -208.085465 -36.217815 0 255 0 
220.454118 -145.987606 -15.423837 0 255 0 
107.315870 -217.345586 -9.979565 0 255 0 
185.118843 -195.795016 -1.368056 0 255 0 
97.439158 -252.364808 -17.302078 0 255 0 
-77.541241 123.443928 -15.558190 0 255 0 
279.037154 43.059223 -15.156334 0 255 0 
108.414635 74.735404 9.927653 0 255 0 
246.517870 -100.147701 -28.336277 0 255 0 
21.803481 25.532659 30.412452 0 255 0 
79.361388 -214.745727 -31.757590 0 255 0 
-92.776094 143.886168 42.296180 0 255 0 
-188.595650 11.490473 77.813589 0 255 0 
-68.419968 -3.550965 33.515009 0 255 0 
-198.948646 -94.416075 24.837607 0 255 0 
314.147603 -117.616668 32.464995 0 255 0 
180.785633 43.847480 41.991921 0 255 0 
180.785633 43.847480 41.991921 0 255 0 
-81.819455 -83.355646 -20.664868 0 255 0 
288.593858 -13.814291 21.281161 0 255 0 
-30.579302 -215.464542 -29.205358 0 255 0 
-30.579302 -215.464542 -29.205358 0 255 0 
-47.088114 36.110041 497.441134 0 0 255 
-46.305841 33.988011 497.047011 0 0 255 
-45.517102 31.873278 496.476646 0 0 255 
-44.531503 29.863624 496.163380 0 0 255 
-44.607442 30.175076 495.687959 0 0 255 
-44.935434 30.221513 495.233397 0 0 255 
-44.655074 30.589482 495.189595 0 0 255 
-45.215445 30.440300 494.731448 0 0 255 
-45.547918 30.294225 494.308247 0 0 255 
-45.358976 30.311347 493.499647 0 0 255 
-45.357139 30.456794 493.345851 0 0 255 
-45.467267 30.202896 493.577731 0 0 255 
-45.684285 29.970816 493.572790 0 0 255 
-45.354724 29.542095 493.459590 0 0 255 
-45.136581 29.138067 493.467886 0 0 255 
-44.970447 28.725743 493.530013 0 0 255 
-44.942439 28.420013 493.557082 0 0 255 
-44.751318 27.924612 492.721940 0 0 255 
-44.532607 27.902240 492.926541 0 0 255 
-44.717958 27.671080 493.094015 0 0 255 
-44.149074 27.328456 493.303003 0 0 255 
-43.851830 26.923097 493.699625 0 0 255 
-43.539248 26.460212 493.914760 0 0 255 
-43.010259 25.709649 494.128225 0 0 255 
-41.877266 25.043154 494.390539 0 0 255 
-41.062760 24.284349 494.697337 0 0 255 
-40.036204 23.276537 495.106416 0 0 255 
-39.143419 22.544690 494.997539 0 0 255 
-38.439943 21.422971 496.064732 0 0 255 
-37.966155 20.302461 496.191682 0 0 255 
-37.617108 19.542905 497.444059 0 0 255 
-37.068488 18.677932 498.085419 0 0 255 
-36.743924 17.511656 499.112887 0 0 255 
-35.809070 16.563623 499.052800 0 0 255 
-34.829395 15.525866 499.933965 0 0 255 
-34.293843 14.477117 500.314441 0 0 255 
-32.917913 13.459342 499.329989 0 0 255 
-29.826218 12.838137 498.592987 0 0 255 
-28.904659 11.843172 499.665466 0 0 255 
-27.468954 10.845770 499.652178 0 0 255 
-25.603290 10.119386 499.701017 0 0 255 
-24.185830 9.714481 500.442346 0 0 255 
-23.045831 8.374149 501.028832 0 0 255 
-21.929543 7.588524 501.405529 0 0 255 
-20.999394 6.503916 502.699429 0 0 255 
-19.306600 5.039044 502.871933 0 0 255 
-17.444879 3.778179 503.504917 0 0 255 
-14.649046 2.545705 503.293768 0 0 255 
-12.351902 1.331793 503.450719 0 0 255 
-10.080313 0.263271 503.516469 0 0 255 
-7.879645 -1.155021 502.450923 0 0 255 
-6.625240 -1.882683 502.287000 0 0 255 
-5.170147 -3.364388 502.848103 0 0 255 
-3.738517 -4.365170 501.850763 0 0 255 
-2.210754 -5.377547 501.777575 0 0 255 
-1.508788 -6.156754 502.302153 0 0 255 
-0.037532 -7.403089 502.706796 0 0 255 
1.591976 -8.610011 502.887696 0 0 255 
3.546416 -9.496821 502.507281 0 0 255 
5.840053 -10.586876 501.934646 0 0 255 
7.441135 -11.561567 501.183962 0 0 255 
8.960698 -12.587167 500.334965 0 0 255 
10.782954 -13.056997 500.720135 0 0 255 
12.488650 -14.045962 500.616177 0 0 255 
14.147360 -14.711674 497.954632 0 0 255 
15.586208 -14.511719 498.529996 0 0 255 
16.828338 -14.981358 497.930101 0 0 255 
18.083818 -15.325978 498.360251 0 0 255 
21.182518 -15.261418 497.776284 0 0 255 
29.094729 -17.418171 495.442814 0 0 255 
32.145257 -17.159178 496.395870 0 0 255 
34.109412 -17.322992 495.802619 0 0 255 
38.584760 -16.944236 495.090802 0 0 255 
40.997116 -17.139148 495.324195 0 0 255 
42.550026 -18.056701 495.116638 0 0 255 
45.384970 -17.811156 495.043007 0 0 255 
46.039049 -18.623906 495.837850 0 0 255 
48.099131 -19.181431 495.124914 0 0 255 
49.122250 -19.897175 495.674862 0 0 255 
49.889133 -20.337951 495.869879 0 0 255 
50.910226 -21.926927 497.261983 0 0 255 
51.723165 -22.692391 497.417258 0 0 255 
53.859412 -23.166803 496.940019 0 0 255 
55.920509 -24.788396 496.143404 0 0 255 
57.648776 -26.032117 495.872062 0 0 255 
59.367488 -27.169262 495.875813 0 0 255 
61.747423 -28.375490 495.567408 0 0 255 
64.009366 -29.162948 495.600098 0 0 255 
66.237789 -29.957318 496.136900 0 0 255 
68.764520 -31.519767 496.021314 0 0 255 
70.615849 -32.076710 496.691277 0 0 255 
72.408669 -33.208201 496.938255 0 0 255 
74.786199 -34.372541 497.452525 0 0 255 
76.931790 -34.812748 497.484336 0 0 255 
78.398372 -34.986253 496.719193 0 0 255 
80.189365 -35.303597 498.118658 0 0 255 
82.257918 -35.802669 498.558809 0 0 255 
83.036597 -36.612851 498.709539 0 0 255 
84.350166 -37.620723 499.425890 0 0 255 
