ply
format ascii 1.0
element vertex 1189
property float x
property float y
property float z
property uchar blue
property uchar green
property uchar red
end_header
-61.602005 120.106456 12.283684 0 255 0 
-63.576679 119.894622 12.302499 0 255 0 
-65.445259 119.649082 11.582378 0 255 0 
-67.302957 119.438940 9.734850 0 255 0 
-69.070465 119.225184 7.140530 0 255 0 
-70.831836 118.986689 4.201679 0 255 0 
-79.416008 118.164661 -6.294260 0 255 0 
-81.339076 117.974938 -4.944121 0 255 0 
-82.760742 117.894954 -7.909353 0 255 0 
117.830465 142.896089 20.278702 0 255 0 
115.602106 142.439416 22.670582 0 255 0 
113.558348 142.083518 22.646781 0 255 0 
111.714163 141.870490 21.534467 0 255 0 
103.870472 140.913593 23.756851 0 255 0 
89.726800 139.814482 36.212285 0 255 0 
88.235847 139.629726 29.346173 0 255 0 
86.755370 139.460195 22.647394 0 255 0 
85.481035 139.297781 16.351113 0 255 0 
84.316850 139.107923 10.254942 0 255 0 
73.135014 137.915876 -22.274726 0 255 0 
71.207092 137.615085 -24.089132 0 255 0 
59.608346 135.665151 0.053288 0 255 0 
29.278399 132.340446 -22.504211 0 255 0 
-83.412786 115.533614 2.454593 0 255 0 
115.625921 140.269515 25.275218 0 255 0 
113.459714 139.985532 26.353350 0 255 0 
103.702144 138.708841 28.717970 0 255 0 
93.907911 137.530211 43.938944 0 255 0 
88.592600 137.061908 26.255824 0 255 0 
87.124518 136.948709 19.730889 0 255 0 
85.879410 136.842669 13.650831 0 255 0 
59.954555 133.435413 -0.627297 0 255 0 
57.611639 133.187831 5.124255 0 255 0 
31.433405 130.002869 -21.810668 0 255 0 
29.562615 129.910272 -22.963922 0 255 0 
15.240967 127.610857 13.109886 0 255 0 
-66.548241 114.602292 5.307244 0 255 0 
-68.461907 114.434837 4.298682 0 255 0 
-83.498039 113.109656 7.169185 0 255 0 
-124.595708 110.126777 31.781699 0 255 0 
-126.595540 110.013879 31.447506 0 255 0 
-128.529109 109.645178 29.211582 0 255 0 
116.174457 138.640145 21.663631 0 255 0 
113.937692 138.413468 23.177257 0 255 0 
73.759853 133.073343 -23.081366 0 255 0 
62.332670 131.170729 -0.274230 0 255 0 
60.301580 130.989599 0.248819 0 255 0 
57.969201 130.775444 5.445493 0 255 0 
49.466844 130.194401 36.963319 0 255 0 
47.451305 129.887439 31.942267 0 255 0 
45.887338 129.574304 25.244280 0 255 0 
44.447266 129.280351 17.919885 0 255 0 
17.943106 125.689631 6.030810 0 255 0 
15.604476 125.469284 11.823102 0 255 0 
12.653902 125.225591 28.131244 0 255 0 
116.942203 136.881543 16.432544 0 255 0 
95.104238 132.866199 31.970909 0 255 0 
92.993480 132.602858 29.136161 0 255 0 
62.512887 129.053116 3.097719 0 255 0 
58.146522 128.437626 9.351327 0 255 0 
52.175536 127.990028 37.713660 0 255 0 
49.710788 127.703928 39.149878 0 255 0 
47.724935 127.390746 33.887468 0 255 0 
46.183301 127.068613 27.102765 0 255 0 
44.761652 126.766068 19.726031 0 255 0 
32.209046 125.083894 -24.638754 0 255 0 
20.666185 123.563286 1.106782 0 255 0 
18.317862 123.334300 5.623001 0 255 0 
12.990035 123.059644 27.725147 0 255 0 
3.363074 121.829159 42.186367 0 255 0 
1.759438 121.527243 35.434181 0 255 0 
0.219326 121.256361 27.722188 0 255 0 
-13.027132 120.220274 -27.316482 0 255 0 
91.782682 130.476497 21.289065 0 255 0 
90.142611 130.376583 16.698558 0 255 0 
21.048962 121.174068 1.939499 0 255 0 
13.356036 120.747362 27.912996 0 255 0 
7.529253 120.265022 50.027402 0 255 0 
5.388100 119.975366 47.208976 0 255 0 
3.674098 119.676073 41.928981 0 255 0 
2.070637 119.372569 35.192146 0 255 0 
0.530531 119.103944 27.464369 0 255 0 
-10.955032 118.237935 -24.174066 0 255 0 
-12.776542 118.069249 -27.927131 0 255 0 
-14.736575 117.849692 -29.802366 0 255 0 
-16.798632 117.570534 -30.439610 0 255 0 
-18.881701 117.303127 -30.367108 0 255 0 
-22.948068 116.827680 -30.112443 0 255 0 
-60.370663 110.027811 -11.223056 0 255 0 
-64.431800 109.259486 -9.554972 0 255 0 
-70.078975 108.492468 -11.476367 0 255 0 
-71.630866 108.356024 -14.760875 0 255 0 
-73.052373 108.437896 -17.361065 0 255 0 
-74.709906 108.582045 -19.898641 0 255 0 
-120.787314 104.780047 16.315954 0 255 0 
-122.724696 104.479635 16.778970 0 255 0 
-124.732948 104.221568 17.108260 0 255 0 
-126.726436 103.810012 15.835631 0 255 0 
13.594139 118.237796 31.238181 0 255 0 
10.382906 118.066455 48.074862 0 255 0 
7.836608 117.765452 51.158634 0 255 0 
5.750749 117.475614 47.063305 0 255 0 
4.065103 117.176717 41.215245 0 255 0 
-12.536291 115.562310 -29.580429 0 255 0 
-14.591822 115.280802 -30.748062 0 255 0 
-23.150900 113.882449 -25.065762 0 255 0 
-56.083528 108.293961 -7.415934 0 255 0 
-57.895825 107.919909 -9.940387 0 255 0 
-59.850879 107.602036 -11.357884 0 255 0 
-61.841880 107.220426 -11.377217 0 255 0 
-69.790954 105.804854 -9.839557 0 255 0 
-71.216833 105.592578 -13.559265 0 255 0 
-116.102914 103.569202 21.063842 0 255 0 
-122.117034 102.690159 10.975118 0 255 0 
-124.139219 102.407537 11.438342 0 255 0 
-19.054746 111.572580 -22.638050 0 255 0 
-23.211070 110.932559 -20.099496 0 255 0 
-50.588154 107.058019 4.337353 0 255 0 
-58.047992 105.984148 -4.188083 0 255 0 
-60.044022 105.691128 -5.206062 0 255 0 
-62.093414 105.303682 -4.311021 0 255 0 
-115.195916 102.024689 18.646402 0 255 0 
-125.229984 100.386398 5.056394 0 255 0 
-127.075458 100.104144 3.732984 0 255 0 
100.890433 127.095344 23.279809 0 255 0 
99.172562 126.833185 20.007025 0 255 0 
82.541850 125.931445 -10.693889 0 255 0 
80.725467 125.680518 -13.104800 0 255 0 
78.871106 125.428946 -15.636470 0 255 0 
-19.064577 109.217870 -16.151687 0 255 0 
-21.156951 108.889111 -14.497788 0 255 0 
-50.505271 104.910940 5.992198 0 255 0 
-52.404247 104.646606 4.111593 0 255 0 
-54.239435 104.357753 1.763411 0 255 0 
-60.177160 103.649853 -1.019068 0 255 0 
-114.767416 100.118187 16.803526 0 255 0 
-116.191880 100.032389 12.247261 0 255 0 
-117.392419 99.806002 7.254235 0 255 0 
-131.559642 97.785560 -5.556833 0 255 0 
-132.981128 97.720821 -8.608045 0 255 0 
104.604794 125.401696 28.830498 0 255 0 
102.844659 125.077767 24.455450 0 255 0 
101.232944 124.942234 19.200580 0 255 0 
99.718497 124.887130 14.484299 0 255 0 
98.040202 124.766579 10.820401 0 255 0 
-115.910958 97.511966 10.802636 0 255 0 
-117.185372 97.252404 6.257491 0 255 0 
-118.779225 96.892206 3.015878 0 255 0 
-120.651440 96.698376 1.947411 0 255 0 
-122.664093 96.549887 1.958472 0 255 0 
-126.510195 95.845065 0.316951 0 255 0 
-128.384848 95.771709 -0.110447 0 255 0 
-129.917336 95.675679 -2.717228 0 255 0 
96.598153 122.349555 8.080530 0 255 0 
-51.730960 100.285365 -4.042447 0 255 0 
-53.456942 99.920142 -8.093395 0 255 0 
-55.246420 99.617768 -11.942044 0 255 0 
-57.125820 99.307177 -13.798664 0 255 0 
-113.802432 95.720604 13.624664 0 255 0 
-115.322901 95.640447 8.535635 0 255 0 
-116.646286 95.390622 3.648048 0 255 0 
-118.276614 95.024784 0.262950 0 255 0 
-120.167843 94.853518 -0.772089 0 255 0 
-126.159872 94.075945 -0.881899 0 255 0 
-128.033282 93.925460 -1.209354 0 255 0 
-129.585098 93.782867 -3.609374 0 255 0 
-53.028288 98.419026 -11.314772 0 255 0 
-54.860313 98.154838 -13.766610 0 255 0 
-56.737360 97.861691 -15.253106 0 255 0 
-58.819732 97.519645 -14.897443 0 255 0 
-104.015608 95.933644 33.093939 0 255 0 
-113.331570 93.868173 15.097554 0 255 0 
-123.758990 92.214430 -1.698541 0 255 0 
-125.771661 91.962924 -1.170499 0 255 0 
-103.489790 94.260673 31.439868 0 255 0 
-113.011078 92.028554 15.524576 0 255 0 
-103.160100 93.053201 31.832803 0 255 0 
-112.808310 90.427699 16.324327 0 255 0 
88.022645 112.986002 9.827632 0 255 0 
86.392580 112.739338 7.910961 0 255 0 
-112.565765 88.849313 18.452285 0 255 0 
-114.208819 88.490833 12.542319 0 255 0 
-115.552713 87.953592 6.346293 0 255 0 
-117.040735 87.315994 0.791654 0 255 0 
-118.811705 86.895410 -2.379883 0 255 0 
-120.757578 86.533985 -3.456234 0 255 0 
-122.952334 86.071630 -2.055239 0 255 0 
-125.309393 85.812056 2.766831 0 255 0 
88.375783 111.180028 8.925613 0 255 0 
86.740145 110.841589 7.132181 0 255 0 
-41.710451 91.750078 -14.519704 0 255 0 
-42.553736 91.556988 -21.028831 0 255 0 
-43.698448 91.472673 -29.506898 0 255 0 
-44.967953 91.453217 -38.507652 0 255 0 
-110.254439 87.509103 21.893746 0 255 0 
-112.169886 87.179689 18.763698 0 255 0 
-125.291192 84.522689 6.380864 0 255 0 
-127.509548 84.516146 10.947816 0 255 0 
88.691525 109.534385 8.183784 0 255 0 
-107.146076 84.149746 11.187971 0 255 0 
-109.115486 83.987890 9.708224 0 255 0 
-111.114021 83.898803 8.580982 0 255 0 
-112.986336 83.728317 5.008454 0 255 0 
-114.518115 83.337086 0.466477 0 255 0 
-116.070299 82.826725 -4.528715 0 255 0 
-117.835853 82.437608 -7.955163 0 255 0 
-124.502271 82.048252 -0.960686 0 255 0 
-127.042870 82.679353 8.531064 0 255 0 
80.692704 106.023731 -2.967482 0 255 0 
-106.923468 82.245962 13.094405 0 255 0 
-108.887042 81.954850 11.358277 0 255 0 
-117.724019 80.420066 -5.333121 0 255 0 
82.210516 104.846333 5.334522 0 255 0 
-106.786204 80.357177 15.679162 0 255 0 
-108.747338 80.044141 14.139524 0 255 0 
-110.708090 79.845111 12.249477 0 255 0 
-112.568688 79.561872 8.248589 0 255 0 
-114.215726 79.210570 4.020983 0 255 0 
-115.837380 78.780118 0.248465 0 255 0 
-117.638692 78.480117 -1.621421 0 255 0 
83.485328 103.565784 14.062756 0 255 0 
82.102354 103.224117 9.124272 0 255 0 
-102.349430 78.043949 15.085633 0 255 0 
-108.006699 77.327674 9.135138 0 255 0 
-29.521310 84.429851 1.960585 0 255 0 
-99.709428 76.179700 14.878861 0 255 0 
-101.980199 75.864621 15.023644 0 255 0 
-103.849113 75.628872 12.631332 0 255 0 
-105.656672 75.368079 9.567429 0 255 0 
-107.576527 75.153811 7.401756 0 255 0 
-116.882200 74.275771 -1.989121 0 255 0 
76.956127 98.030487 4.132379 0 255 0 
74.766092 97.525356 5.641793 0 255 0 
-29.342280 83.478648 3.137095 0 255 0 
-99.401736 74.432197 15.910977 0 255 0 
-101.659706 74.120360 16.193400 0 255 0 
-116.459976 72.056176 -1.460226 0 255 0 
-18.578934 82.729676 -3.538188 0 255 0 
-29.127529 82.632364 3.975553 0 255 0 
-112.521076 70.853087 0.065283 0 255 0 
-114.349923 70.586083 -0.983590 0 255 0 
-222.502305 59.017261 19.343278 0 255 0 
-17.968465 81.257156 -7.427005 0 255 0 
-19.900550 81.338114 -7.114395 0 255 0 
-28.744255 81.554297 3.791006 0 255 0 
-93.540240 70.495919 30.718219 0 255 0 
-95.289396 70.277948 25.065363 0 255 0 
-97.161277 70.051381 21.816500 0 255 0 
-98.981241 69.803110 18.950332 0 255 0 
-101.006883 69.584383 16.637400 0 255 0 
-17.345906 79.834972 -10.984033 0 255 0 
-19.232366 79.927852 -11.392447 0 255 0 
-21.256642 80.054012 -9.884227 0 255 0 
-28.228902 80.391842 2.313506 0 255 0 
-97.352793 67.577168 27.666054 0 255 0 
-102.472034 66.987222 13.297455 0 255 0 
-104.019138 66.829925 7.016121 0 255 0 
-105.661643 66.742037 1.581635 0 255 0 
-107.508833 66.690795 -1.835131 0 255 0 
-109.482335 66.587003 -2.880269 0 255 0 
-217.552599 54.938930 28.964892 0 255 0 
-230.447612 52.130692 23.575714 0 255 0 
68.982082 87.982811 15.359786 0 255 0 
67.261305 87.572494 11.398755 0 255 0 
-18.511497 78.580630 -15.562114 0 255 0 
-20.494405 78.697003 -14.807997 0 255 0 
-110.912811 64.516213 -5.623445 0 255 0 
-224.421607 51.077230 28.323527 0 255 0 
-226.348696 50.676389 27.807184 0 255 0 
-228.208030 50.311339 26.237793 0 255 0 
-230.051386 49.929394 24.240133 0 255 0 
-12.038056 77.218906 1.732362 0 255 0 
-19.620911 77.176881 -20.614513 0 255 0 
-110.632010 62.648549 -6.777414 0 255 0 
-112.596174 62.406094 -4.793926 0 255 0 
-223.879433 49.055244 23.875345 0 255 0 
-225.819856 48.633218 23.398201 0 255 0 
-227.692426 48.282981 22.059964 0 255 0 
-229.519304 47.931415 20.109157 0 255 0 
-231.201069 47.649098 17.436945 0 255 0 
-232.691668 47.488651 14.193444 0 255 0 
-234.093157 47.478231 10.714515 0 255 0 
-11.629938 75.623505 0.850201 0 255 0 
-12.897035 75.536163 -5.520893 0 255 0 
-98.941649 61.598034 26.509915 0 255 0 
-100.495401 61.482651 19.240181 0 255 0 
-112.370595 60.343598 -4.536384 0 255 0 
-225.228068 46.496332 20.304294 0 255 0 
-227.152003 46.175882 19.734839 0 255 0 
-229.039070 45.853624 18.637265 0 255 0 
-230.780555 45.581171 16.662077 0 255 0 
-232.294917 45.382880 13.623710 0 255 0 
-233.665218 45.210551 9.595794 0 255 0 
62.632229 82.233918 2.018924 0 255 0 
60.609610 81.844125 2.540885 0 255 0 
-102.719295 58.618684 0.697663 0 255 0 
-103.947444 58.527935 -7.020824 0 255 0 
-105.405068 58.416831 -14.031127 0 255 0 
-215.217052 45.933844 19.044033 0 255 0 
-216.889946 45.662652 17.186564 0 255 0 
-222.537007 44.701324 16.440041 0 255 0 
-224.553428 44.348077 16.984907 0 255 0 
-226.528943 44.027196 16.965798 0 255 0 
-228.474242 43.710243 16.431734 0 255 0 
-230.303217 43.426563 15.230251 0 255 0 
128.861978 93.179824 31.360798 0 255 0 
124.382448 92.174301 10.538524 0 255 0 
122.970667 91.827323 3.610134 0 255 0 
64.893056 80.203948 2.452270 0 255 0 
62.977610 79.885832 1.117323 0 255 0 
-103.381505 56.392735 -9.276526 0 255 0 
-104.880899 56.332376 -16.381341 0 255 0 
131.320084 91.068217 34.700599 0 255 0 
129.400802 90.824819 31.297572 0 255 0 
127.710040 90.558633 26.017230 0 255 0 
121.578083 89.300483 1.208685 0 255 0 
72.402568 78.808576 8.404779 0 255 0 
70.597060 78.436082 5.374844 0 255 0 
68.857527 78.123277 2.366846 0 255 0 
67.257061 77.890138 -1.215280 0 255 0 
65.651916 77.688187 -4.884151 0 255 0 
8.817928 69.661087 31.002658 0 255 0 
-81.387011 57.398135 19.734963 0 255 0 
-82.937511 57.183922 14.699550 0 255 0 
-84.861207 56.900787 12.435645 0 255 0 
-102.702766 54.842992 -11.196385 0 255 0 
-104.220805 54.839356 -17.831635 0 255 0 
-219.794917 40.865897 13.626004 0 255 0 
-221.782894 40.549829 13.922379 0 255 0 
-223.783855 40.236989 14.322335 0 255 0 
143.449247 90.629673 44.040148 0 255 0 
141.914643 90.539604 37.479638 0 255 0 
140.239301 90.318680 31.982075 0 255 0 
138.370808 90.006942 28.946589 0 255 0 
136.318381 89.569598 28.856317 0 255 0 
134.160638 89.152217 31.192671 0 255 0 
132.021086 88.785736 32.924586 0 255 0 
130.043978 88.478119 31.308279 0 255 0 
128.268829 88.221495 27.648288 0 255 0 
126.566057 88.018899 23.190085 0 255 0 
121.786146 87.262339 5.694772 0 255 0 
71.149501 76.712238 1.027278 0 255 0 
69.430850 76.389426 -2.066547 0 255 0 
67.833170 76.130739 -5.331075 0 255 0 
9.025322 67.676759 33.471100 0 255 0 
7.171791 67.461413 30.426882 0 255 0 
-1.769337 66.628031 25.746818 0 255 0 
-79.559390 55.750620 21.617755 0 255 0 
-80.878586 55.538759 14.872085 0 255 0 
-82.374369 55.325450 8.733585 0 255 0 
-84.214074 55.056612 5.293441 0 255 0 
-86.077058 54.780552 4.385553 0 255 0 
-87.818080 54.568017 2.013786 0 255 0 
-89.572570 54.335594 -0.742709 0 255 0 
-99.215298 53.153076 -3.364880 0 255 0 
-100.654781 53.106334 -8.616927 0 255 0 
-101.997768 53.133453 -14.301962 0 255 0 
-103.523684 53.223255 -20.787062 0 255 0 
-223.519309 38.239190 13.694172 0 255 0 
-225.420505 38.022085 12.803824 0 255 0 
-227.281950 37.832439 11.248672 0 255 0 
-229.050221 37.645824 9.019826 0 255 0 
-230.636623 37.502971 5.901781 0 255 0 
140.907584 88.085273 29.266883 0 255 0 
139.034520 87.754883 26.042385 0 255 0 
137.003223 87.311190 25.384152 0 255 0 
134.886645 86.836194 27.097327 0 255 0 
132.746576 86.416798 29.279451 0 255 0 
130.743857 86.062362 28.862989 0 255 0 
73.187099 75.321177 2.720833 0 255 0 
71.397945 74.973388 -0.596886 0 255 0 
69.700037 74.646343 -3.632120 0 255 0 
9.315910 65.939206 34.565645 0 255 0 
7.378099 65.799360 32.379463 0 255 0 
-1.754351 65.056679 30.366614 0 255 0 
-79.268125 53.533372 19.669553 0 255 0 
-80.612993 53.309835 13.027595 0 255 0 
-84.018917 52.819918 4.288388 0 255 0 
-85.907590 52.552516 3.697811 0 255 0 
-87.652791 52.333039 1.425908 0 255 0 
-89.398633 52.083318 -1.094625 0 255 0 
-91.242657 51.837063 -2.753707 0 255 0 
-98.832967 50.852602 -5.391705 0 255 0 
-100.207921 50.787817 -10.745779 0 255 0 
-213.503910 36.962090 14.082614 0 255 0 
-215.321519 36.720527 13.807706 0 255 0 
-217.219238 36.468885 13.892843 0 255 0 
-219.142386 36.197555 14.191772 0 255 0 
-221.096767 35.942316 14.110263 0 255 0 
-223.000013 35.730947 13.284709 0 255 0 
-224.821731 35.584665 11.495338 0 255 0 
-226.562391 35.526575 8.700125 0 255 0 
146.193665 86.204371 42.130602 0 255 0 
144.915721 86.157947 37.046222 0 255 0 
69.748223 72.683274 -3.939866 0 255 0 
68.239525 72.436692 -7.395170 0 255 0 
66.675431 72.199856 -10.991562 0 255 0 
64.820497 71.865565 -11.798134 0 255 0 
62.665779 71.425049 -8.528212 0 255 0 
60.128401 70.934439 0.312936 0 255 0 
53.905407 69.866031 3.166302 0 255 0 
52.132870 69.657283 0.975944 0 255 0 
44.454752 68.516758 0.500569 0 255 0 
42.230576 68.064208 4.354603 0 255 0 
28.000551 65.147585 0.488834 0 255 0 
14.170171 64.108088 29.245674 0 255 0 
7.858722 63.859176 31.291167 0 255 0 
6.093354 63.695196 28.180454 0 255 0 
-1.485564 63.197297 31.686181 0 255 0 
-3.932588 62.910057 34.840853 0 255 0 
-79.055890 51.186657 18.132117 0 255 0 
-80.447835 50.953877 11.978535 0 255 0 
-87.820086 49.950962 5.716158 0 255 0 
-89.610584 49.684915 4.038304 0 255 0 
-98.698950 48.640516 -3.535904 0 255 0 
-99.984011 48.605114 -9.500675 0 255 0 
-213.268462 35.671923 14.448971 0 255 0 
-215.098845 35.407737 14.179098 0 255 0 
-217.003101 35.128829 14.175518 0 255 0 
-218.925580 34.831341 14.390725 0 255 0 
-222.720764 34.276834 13.240344 0 255 0 
-224.474214 34.065693 11.387083 0 255 0 
-226.079855 33.895648 8.516816 0 255 0 
-227.614417 33.745876 4.987096 0 255 0 
-229.073832 33.620456 1.607705 0 255 0 
66.590213 69.640840 -9.892501 0 255 0 
64.779630 69.282234 -10.042022 0 255 0 
62.638672 68.823340 -6.241775 0 255 0 
60.114177 68.342600 2.853148 0 255 0 
54.317422 67.438561 -0.305110 0 255 0 
52.634638 67.287249 -3.458439 0 255 0 
50.873367 67.022917 -5.825282 0 255 0 
48.998186 66.726411 -7.048583 0 255 0 
42.881218 65.797709 -2.525369 0 255 0 
30.002756 63.207560 2.312002 0 255 0 
28.569994 63.154142 -3.138950 0 255 0 
14.721654 61.662794 26.126527 0 255 0 
12.615514 61.572021 26.745306 0 255 0 
10.587978 61.397230 26.868142 0 255 0 
8.568132 61.232979 26.188821 0 255 0 
6.782001 61.027810 23.319609 0 255 0 
5.243365 60.757003 20.077556 0 255 0 
3.587878 60.535990 17.903433 0 255 0 
-0.686509 60.505053 24.321729 0 255 0 
-78.969635 48.709395 17.674266 0 255 0 
-99.798535 46.389473 -9.639180 0 255 0 
139.146281 80.677374 11.454417 0 255 0 
137.113935 80.184622 11.285413 0 255 0 
135.037746 79.755204 12.472517 0 255 0 
54.628503 65.031488 -1.682418 0 255 0 
52.948475 64.937480 -4.759685 0 255 0 
44.983303 63.845244 -2.899586 0 255 0 
42.761076 63.486607 1.549133 0 255 0 
40.468303 62.989354 6.477342 0 255 0 
29.822194 60.793450 6.722495 0 255 0 
19.287038 59.481555 24.185956 0 255 0 
16.914765 59.269576 28.712357 0 255 0 
14.702088 59.235689 30.371921 0 255 0 
12.610440 59.131758 30.840086 0 255 0 
10.582593 59.020863 30.629841 0 255 0 
8.557790 58.887130 29.300838 0 255 0 
6.804618 58.668946 25.359262 0 255 0 
3.824472 58.138920 16.744773 0 255 0 
-99.452119 43.990493 -12.578210 0 255 0 
-208.997742 31.816040 17.695383 0 255 0 
-210.684185 31.633424 15.498632 0 255 0 
-212.502247 31.380901 14.505755 0 255 0 
-214.390594 31.091136 14.407705 0 255 0 
-216.366018 30.786189 14.488826 0 255 0 
-218.373488 30.457596 14.933242 0 255 0 
139.756528 78.962964 7.764103 0 255 0 
137.709114 78.471209 7.821133 0 255 0 
135.647961 78.060853 8.658664 0 255 0 
133.570835 77.647636 10.356309 0 255 0 
131.517391 77.176913 11.573242 0 255 0 
129.520855 76.728684 11.733307 0 255 0 
55.073746 62.867589 -3.807305 0 255 0 
53.445440 62.783463 -7.299727 0 255 0 
49.508374 62.187247 -7.296777 0 255 0 
47.309496 61.917116 -4.771608 0 255 0 
45.275349 61.701907 -3.122942 0 255 0 
43.067703 61.386601 1.085169 0 255 0 
29.945048 58.755299 9.266420 0 255 0 
23.821974 58.127027 16.359708 0 255 0 
21.490980 57.818841 23.513424 0 255 0 
19.142255 57.484686 29.959218 0 255 0 
16.864300 57.286680 33.380107 0 255 0 
12.570284 57.117795 35.623267 0 255 0 
-91.555940 42.329670 8.186279 0 255 0 
-93.438548 42.051847 5.790474 0 255 0 
-95.077798 41.834411 1.085812 0 255 0 
-99.098040 41.750258 -15.993659 0 255 0 
-100.324382 41.819845 -21.911618 0 255 0 
-210.331377 29.672170 13.233033 0 255 0 
-212.134608 29.417287 12.190815 0 255 0 
-214.008952 29.126504 12.019817 0 255 0 
162.818580 80.387699 10.640058 0 255 0 
161.072724 80.242644 8.549236 0 255 0 
159.098964 79.988923 9.312634 0 255 0 
156.907020 79.576171 11.824838 0 255 0 
64.253417 62.348004 7.786560 0 255 0 
62.113853 61.952799 11.064917 0 255 0 
60.161270 61.596009 10.456722 0 255 0 
58.405611 61.296521 5.736451 0 255 0 
56.968001 61.071601 -0.758015 0 255 0 
55.601341 60.941115 -7.082163 0 255 0 
54.115860 60.856662 -12.051339 0 255 0 
52.324825 60.623941 -14.587749 0 255 0 
50.337303 60.326468 -14.405168 0 255 0 
30.388683 56.700949 7.602715 0 255 0 
28.553486 56.554208 7.382769 0 255 0 
26.286923 56.371193 12.307312 0 255 0 
19.170238 55.413471 33.452554 0 255 0 
8.484762 54.806173 35.911844 0 255 0 
6.817913 54.568114 29.814319 0 255 0 
5.471026 54.277958 23.090348 0 255 0 
4.263536 54.026934 16.256555 0 255 0 
-2.276193 53.504800 0.798177 0 255 0 
-4.351130 53.344190 -0.435433 0 255 0 
-6.136973 53.258598 -3.917593 0 255 0 
-8.057083 53.105754 -6.852459 0 255 0 
-10.342694 52.864031 -4.244696 0 255 0 
-12.827441 52.458667 4.828133 0 255 0 
-81.158596 41.971254 3.348524 0 255 0 
-83.192916 41.698520 4.422964 0 255 0 
-85.229695 41.414670 5.344985 0 255 0 
-87.239713 41.106748 5.680346 0 255 0 
-89.170666 40.811385 5.326651 0 255 0 
-91.053953 40.554694 4.731091 0 255 0 
-93.001872 40.296358 3.448887 0 255 0 
-94.667247 40.100148 -0.922225 0 255 0 
-96.019238 40.034714 -6.445035 0 255 0 
-97.369458 40.023157 -12.327199 0 255 0 
-98.698934 40.025607 -18.036324 0 255 0 
-99.975632 40.090931 -23.557584 0 255 0 
-101.591722 40.188387 -29.108151 0 255 0 
-213.806761 27.468468 13.177540 0 255 0 
-215.757889 27.153415 12.952904 0 255 0 
-217.762751 26.789866 13.067953 0 255 0 
-221.727917 26.140753 12.530151 0 255 0 
-223.606930 25.887880 11.758369 0 255 0 
163.441491 79.026461 8.791003 0 255 0 
161.821175 78.866882 5.128147 0 255 0 
160.005484 78.647277 3.870221 0 255 0 
157.955528 78.313903 4.638596 0 255 0 
155.594703 77.746364 8.760896 0 255 0 
149.630426 76.248797 17.234648 0 255 0 
148.212878 76.088406 14.296076 0 255 0 
69.866418 61.432866 10.980998 0 255 0 
67.932577 61.096365 11.719869 0 255 0 
66.048751 60.795071 10.979861 0 255 0 
64.319660 60.487074 10.554085 0 255 0 
62.235657 60.111830 12.297256 0 255 0 
60.356918 59.778063 10.174907 0 255 0 
58.677321 59.499470 4.551007 0 255 0 
52.945545 58.851662 -19.206935 0 255 0 
50.999548 58.572090 -19.793006 0 255 0 
34.883344 55.567859 6.670079 0 255 0 
32.710559 55.139389 7.588451 0 255 0 
30.749949 54.800374 6.615347 0 255 0 
28.857246 54.604825 7.153378 0 255 0 
26.497614 54.359549 13.354818 0 255 0 
19.282341 53.362002 34.972373 0 255 0 
10.502150 52.863862 43.444306 0 255 0 
8.502771 52.728033 38.647411 0 255 0 
6.833451 52.503036 31.337369 0 255 0 
-12.273988 50.405786 1.425358 0 255 0 
-15.046769 49.941484 10.481690 0 255 0 
-17.286282 49.678710 12.208527 0 255 0 
-94.083043 38.431808 -3.770622 0 255 0 
-95.470054 38.401609 -8.338535 0 255 0 
-96.819199 38.454833 -13.782017 0 255 0 
-223.072803 24.069744 7.304388 0 255 0 
-224.717814 24.015627 6.251241 0 255 0 
144.909127 73.196137 8.393237 0 255 0 
142.854243 72.816457 7.589462 0 255 0 
64.409297 58.844848 12.860159 0 255 0 
62.345970 58.491264 13.695733 0 255 0 
60.505068 58.180186 10.639561 0 255 0 
58.879878 57.912142 4.371378 0 255 0 
17.256248 51.287317 38.909852 0 255 0 
-93.169684 36.312085 -11.330683 0 255 0 
-94.623610 36.363979 -14.017760 0 255 0 
-207.528683 23.594276 13.133672 0 255 0 
-209.307306 23.329796 12.504698 0 255 0 
-211.154753 23.044743 12.392225 0 255 0 
-212.980322 22.746712 11.839897 0 255 0 
-216.567146 22.136407 7.619608 0 255 0 
-218.279568 21.940590 4.498163 0 255 0 
-220.029224 21.760909 1.527966 0 255 0 
-221.787934 21.610587 -0.918300 0 255 0 
-223.393156 21.538885 -2.874516 0 255 0 
143.059886 70.444337 7.913765 0 255 0 
140.903171 70.046223 8.567918 0 255 0 
77.691328 58.944342 -6.115123 0 255 0 
40.864716 53.157098 -9.999799 0 255 0 
38.390255 52.475808 -6.204762 0 255 0 
36.041508 51.962911 -2.041765 0 255 0 
19.643650 49.796280 36.273532 0 255 0 
17.536901 49.481942 38.425394 0 255 0 
15.340928 49.302532 41.738441 0 255 0 
-20.487247 45.100515 9.751591 0 255 0 
-92.239516 33.543438 -17.854391 0 255 0 
-93.660235 33.529349 -20.269480 0 255 0 
-207.385452 22.139421 17.860749 0 255 0 
-209.254744 21.935822 17.196333 0 255 0 
-211.162690 21.690276 16.914168 0 255 0 
-213.003314 21.416658 15.768587 0 255 0 
-214.764683 21.153796 13.320978 0 255 0 
-216.464454 20.883371 10.252078 0 255 0 
-218.015684 20.693612 6.351591 0 255 0 
-219.594785 20.521469 2.636534 0 255 0 
-221.172224 20.369335 -0.754364 0 255 0 
-222.621823 20.242693 -3.638438 0 255 0 
164.641623 72.910316 2.315486 0 255 0 
162.992071 72.713017 -1.088558 0 255 0 
91.770238 59.302889 -29.522373 0 255 0 
80.187396 57.094034 -7.396804 0 255 0 
78.174170 56.834298 -7.590208 0 255 0 
45.430941 52.602026 -14.229358 0 255 0 
43.308827 52.178980 -11.611589 0 255 0 
41.185532 51.630670 -10.773359 0 255 0 
38.872080 50.935808 -8.883977 0 255 0 
36.610120 50.367761 -5.875675 0 255 0 
34.318698 49.957367 -1.873123 0 255 0 
32.059229 49.715216 1.270695 0 255 0 
24.783926 48.881536 23.924577 0 255 0 
22.215510 48.599812 32.981749 0 255 0 
19.824233 48.190375 37.449457 0 255 0 
17.739478 47.838394 38.907819 0 255 0 
-19.997062 42.970444 7.201869 0 255 0 
-87.932278 31.713743 -18.716931 0 255 0 
-90.000115 31.419271 -17.159355 0 255 0 
-91.863445 31.203794 -16.600594 0 255 0 
-93.287991 31.143318 -18.297781 0 255 0 
-212.743454 19.168215 18.610413 0 255 0 
165.063698 70.494071 -1.655004 0 255 0 
163.448074 70.308038 -5.157773 0 255 0 
161.726859 70.103401 -7.132261 0 255 0 
137.568885 64.527505 4.442386 0 255 0 
110.905662 60.090669 36.386632 0 255 0 
109.209917 59.874968 32.082327 0 255 0 
107.591902 59.659312 26.034739 0 255 0 
91.971455 57.060137 -27.959143 0 255 0 
89.524633 56.590760 -21.370167 0 255 0 
86.916873 56.048140 -11.998028 0 255 0 
84.527180 55.547648 -7.113090 0 255 0 
80.592858 55.001297 -8.000807 0 255 0 
78.600304 54.750240 -8.311441 0 255 0 
-19.534686 40.833630 4.960346 0 255 0 
-77.820035 31.567934 -17.543619 0 255 0 
-79.586350 31.169917 -20.559940 0 255 0 
-81.639962 30.835683 -20.330256 0 255 0 
-87.918916 29.824525 -13.664213 0 255 0 
-89.982967 29.538777 -12.069376 0 255 0 
-91.813589 29.316662 -11.637876 0 255 0 
-208.572192 17.600889 18.990761 0 255 0 
-210.525528 17.308537 18.986169 0 255 0 
-212.406856 17.009744 17.809235 0 255 0 
-215.878704 16.435551 11.858186 0 255 0 
-217.379184 16.153128 8.509516 0 255 0 
163.932531 68.456515 -8.661569 0 255 0 
162.263170 68.271691 -11.097966 0 255 0 
160.385108 68.059687 -11.774227 0 255 0 
137.781742 61.266056 3.479198 0 255 0 
113.029297 57.753671 38.359339 0 255 0 
111.184282 57.543671 35.985526 0 255 0 
109.509101 57.370467 31.651931 0 255 0 
107.882916 57.207897 26.000738 0 255 0 
106.305169 57.038196 19.537232 0 255 0 
92.090087 54.911117 -26.583963 0 255 0 
80.861702 53.071440 -7.352950 0 255 0 
69.337695 51.807253 16.144061 0 255 0 
67.187492 51.593596 17.034231 0 255 0 
36.158362 46.261428 -19.225774 0 255 0 
33.603294 45.537690 -11.139655 0 255 0 
28.429753 44.577137 7.077760 0 255 0 
16.470862 43.599422 35.489421 0 255 0 
14.354324 43.433677 36.481234 0 255 0 
-7.715211 40.779273 -16.688257 0 255 0 
-19.129075 38.813865 3.551562 0 255 0 
-26.621922 37.916824 25.363967 0 255 0 
-29.243385 37.519095 33.813551 0 255 0 
-31.615153 37.166703 37.248646 0 255 0 
-33.689346 36.837478 36.716404 0 255 0 
-53.664787 34.436939 -10.891606 0 255 0 
-66.418966 32.324634 -4.600303 0 255 0 
-79.914962 29.520790 -12.131131 0 255 0 
170.630285 67.339383 5.615071 0 255 0 
169.002890 67.180841 1.163612 0 255 0 
167.556090 66.983121 -4.840421 0 255 0 
166.132436 66.831075 -10.170785 0 255 0 
164.619468 66.734556 -14.176919 0 255 0 
139.986421 59.372871 4.610424 0 255 0 
138.055042 59.003253 3.428104 0 255 0 
111.823003 55.059803 31.740749 0 255 0 
110.125294 54.883791 28.153358 0 255 0 
74.283301 50.772906 5.688627 0 255 0 
71.760222 50.490788 14.527569 0 255 0 
69.397530 50.195819 19.631205 0 255 0 
67.294639 49.970825 19.780901 0 255 0 
34.080858 43.002256 -12.329700 0 255 0 
28.863377 42.237079 5.402816 0 255 0 
-18.784722 36.750642 2.859948 0 255 0 
-30.936692 34.446334 30.967730 0 255 0 
-32.961681 34.083932 30.091269 0 255 0 
-66.268416 30.320425 -3.101312 0 255 0 
-205.710272 13.768645 15.945194 0 255 0 
-207.620588 13.471001 15.443569 0 255 0 
-209.576542 13.149943 15.165144 0 255 0 
186.491308 66.355330 14.092014 0 255 0 
185.089109 66.267803 8.050610 0 255 0 
183.818676 66.217098 1.877691 0 255 0 
182.317868 66.092559 -3.827994 0 255 0 
180.608986 65.905073 -8.418527 0 255 0 
178.594546 65.654473 -9.724005 0 255 0 
171.699712 65.138263 -2.133884 0 255 0 
169.877792 64.988139 -4.299447 0 255 0 
168.312439 64.777591 -9.074585 0 255 0 
166.868653 64.642837 -14.409772 0 255 0 
165.401672 64.571712 -19.012930 0 255 0 
140.285379 57.327574 4.386679 0 255 0 
138.369249 57.004763 3.223713 0 255 0 
128.322702 54.841112 9.319582 0 255 0 
121.638385 53.954789 16.816337 0 255 0 
118.936200 53.598069 23.355249 0 255 0 
116.511300 53.228877 26.085354 0 255 0 
81.207838 48.896430 -2.872661 0 255 0 
-117.357809 25.010535 59.782735 0 255 0 
-123.488865 23.514635 54.482920 0 255 0 
-211.179620 11.350715 14.629972 0 255 0 
-213.028686 11.038714 12.177619 0 255 0 
-214.821949 10.747052 9.149911 0 255 0 
-216.406462 10.500644 5.898048 0 255 0 
-218.023911 10.282365 2.930488 0 255 0 
184.496531 64.490134 -1.138327 0 255 0 
183.025857 64.343311 -7.795530 0 255 0 
140.534039 55.327218 5.192161 0 255 0 
138.631815 55.076540 3.960595 0 255 0 
134.900303 54.573444 1.732735 0 255 0 
132.832820 54.132742 3.642717 0 255 0 
130.662651 53.525048 7.920863 0 255 0 
128.501203 52.802694 10.897659 0 255 0 
119.692910 51.522300 15.714459 0 255 0 
117.270773 51.159538 18.441287 0 255 0 
115.172283 50.851251 18.276361 0 255 0 
81.279376 46.508402 1.424719 0 255 0 
-17.971917 31.920952 -0.251995 0 255 0 
-117.664088 22.253713 64.518110 0 255 0 
-123.352455 21.444436 53.785338 0 255 0 
-201.346078 11.010089 16.049645 0 255 0 
-203.088584 10.706499 14.454917 0 255 0 
-210.626476 9.459017 11.817176 0 255 0 
137.011367 53.203284 3.561713 0 255 0 
135.070619 52.878898 3.217288 0 255 0 
132.950932 52.397537 5.646433 0 255 0 
130.704400 51.766402 10.953829 0 255 0 
115.888816 48.883453 11.919194 0 255 0 
113.959543 48.639944 10.796921 0 255 0 
-122.993641 19.522822 51.844692 0 255 0 
-199.037379 8.426213 17.431751 0 255 0 
-200.870112 8.215088 15.774103 0 255 0 
-202.711161 7.977951 14.895444 0 255 0 
-204.569176 7.731189 14.113969 0 255 0 
-206.467657 7.486096 13.221049 0 255 0 
-210.086832 7.088315 9.251349 0 255 0 
-211.804899 6.945610 5.763578 0 255 0 
-213.470665 6.808100 1.808273 0 255 0 
-214.953064 6.708091 -1.545403 0 255 0 
-216.485874 6.685445 -5.055296 0 255 0 
137.019560 51.391560 6.717224 0 255 0 
135.087353 51.057013 6.232678 0 255 0 
111.012419 46.798140 4.426375 0 255 0 
109.172891 46.635241 3.549760 0 255 0 
-119.098260 18.212252 59.941642 0 255 0 
-121.022827 17.999210 55.569620 0 255 0 
-122.618144 17.840846 50.346242 0 255 0 
-124.148277 17.695222 45.160661 0 255 0 
-125.749170 17.639493 40.160857 0 255 0 
-130.361766 17.606677 26.519365 0 255 0 
-132.117224 17.501109 23.418080 0 255 0 
-201.006560 5.975895 21.641410 0 255 0 
-202.866476 5.693809 20.587812 0 255 0 
-211.343791 4.517944 4.970830 0 255 0 
-212.883525 4.367911 0.430998 0 255 0 
-214.254359 4.259939 -3.272029 0 255 0 
-215.655206 4.190879 -7.233513 0 255 0 
187.060782 58.845968 -2.279124 0 255 0 
185.793429 58.635047 -8.973994 0 255 0 
184.400328 58.387919 -16.257588 0 255 0 
138.696447 49.661207 12.784198 0 255 0 
110.041584 45.417433 -1.806142 0 255 0 
108.120250 45.208677 -2.191615 0 255 0 
106.343746 45.045816 -3.937229 0 255 0 
-116.501361 16.559946 57.576429 0 255 0 
-118.649224 16.323805 56.933911 0 255 0 
-120.581515 16.112289 52.726006 0 255 0 
-122.187107 15.975091 47.572166 0 255 0 
-126.883293 15.788910 32.667738 0 255 0 
-128.396996 15.792014 28.023876 0 255 0 
-129.975897 15.701178 23.711271 0 255 0 
187.392354 56.772331 -4.665087 0 255 0 
186.061837 56.602948 -10.408024 0 255 0 
184.654912 56.385716 -17.176302 0 255 0 
183.070335 56.123920 -22.697862 0 255 0 
181.306127 55.848526 -26.989158 0 255 0 
138.442858 47.383245 17.090558 0 255 0 
109.015923 43.869277 -7.623514 0 255 0 
107.030313 43.640379 -7.200295 0 255 0 
105.040261 43.382595 -7.300195 0 255 0 
-49.308415 19.285286 -16.269526 0 255 0 
-51.120533 18.855070 -17.584088 0 255 0 
-52.943416 18.461160 -17.838299 0 255 0 
-54.847761 18.126589 -17.067336 0 255 0 
-118.117516 14.116701 51.968121 0 255 0 
-120.033645 13.998839 47.832495 0 255 0 
-121.633011 13.939723 42.909943 0 255 0 
-123.174439 13.854998 37.941457 0 255 0 
-124.780693 13.873468 33.212645 0 255 0 
-126.351048 13.914850 28.894839 0 255 0 
-127.915241 13.941921 24.670071 0 255 0 
-200.917851 2.584353 26.209772 0 255 0 
-202.784052 2.327718 24.931362 0 255 0 
-204.622018 2.064457 23.030946 0 255 0 
-206.445619 1.803804 20.191771 0 255 0 
105.472944 41.302154 -8.111492 0 255 0 
-47.787868 17.723955 -8.578656 0 255 0 
-49.562682 17.318591 -11.001278 0 255 0 
-51.325966 16.907953 -12.084612 0 255 0 
-53.104550 16.540276 -11.677301 0 255 0 
-122.490474 11.820300 32.349557 0 255 0 
-124.108429 11.890094 28.054320 0 255 0 
-127.327344 12.100628 20.325111 0 255 0 
-135.520955 11.420168 24.434019 0 255 0 
-137.806441 11.039890 28.721835 0 255 0 
-139.537984 10.785036 25.673382 0 255 0 
-141.024085 10.631935 20.361071 0 255 0 
-142.430771 10.503822 14.020074 0 255 0 
-194.720230 0.333402 23.356130 0 255 0 
-196.410709 0.183643 20.610928 0 255 0 
-198.143160 -0.001323 18.572195 0 255 0 
-200.020660 -0.235934 17.866187 0 255 0 
-201.922546 -0.479761 17.202393 0 255 0 
191.945785 52.759546 -10.019190 0 255 0 
190.417557 52.544256 -14.789064 0 255 0 
188.911177 52.346945 -19.552782 0 255 0 
187.444258 52.240772 -24.181212 0 255 0 
-37.210204 17.202488 5.152997 0 255 0 
-39.087621 17.072657 4.791592 0 255 0 
-40.944336 16.904525 3.852576 0 255 0 
-42.778442 16.663203 2.635288 0 255 0 
-44.584919 16.381093 0.897231 0 255 0 
-111.676113 10.612770 28.701273 0 255 0 
-121.594476 9.784787 25.935277 0 255 0 
-123.235123 9.837449 21.312571 0 255 0 
-132.229927 9.859428 9.903427 0 255 0 
-134.949239 9.470809 20.199079 0 255 0 
-137.376890 9.069472 26.607945 0 255 0 
-199.273816 -2.027302 12.787951 0 255 0 
-201.204126 -2.289939 12.472918 0 255 0 
-203.099993 -2.547976 11.354530 0 255 0 
-205.017652 -2.801703 9.749074 0 255 0 
-208.314203 -3.163024 3.031302 0 255 0 
208.558733 52.072637 9.373014 0 255 0 
207.082590 52.031942 4.168459 0 255 0 
205.720497 52.024725 -0.923749 0 255 0 
204.364221 51.950284 -6.501557 0 255 0 
202.646112 51.787747 -10.437594 0 255 0 
200.681292 51.544040 -11.611419 0 255 0 
192.536723 50.477343 -12.404718 0 255 0 
190.946247 50.235426 -16.320054 0 255 0 
189.432180 49.996865 -20.690080 0 255 0 
187.984937 49.811486 -25.624495 0 255 0 
-34.604699 15.189829 -2.052173 0 255 0 
-36.726085 14.960303 0.861788 0 255 0 
-38.829260 14.827226 3.482484 0 255 0 
-40.933878 14.725612 5.437484 0 255 0 
-110.497120 9.620623 18.688468 0 255 0 
-120.742732 8.251455 22.236258 0 255 0 
-122.377349 8.134064 16.972748 0 255 0 
-123.945672 8.140131 11.468166 0 255 0 
-125.626978 8.126582 6.098848 0 255 0 
-127.353186 7.941542 2.587109 0 255 0 
-131.423045 7.588955 2.224247 0 255 0 
-204.151809 -4.434450 5.420287 0 255 0 
-208.863785 -4.957451 -4.676330 0 255 0 
-210.289427 -5.084706 -9.293567 0 255 0 
208.002819 50.461826 0.498502 0 255 0 
206.586414 50.352285 -5.399745 0 255 0 
205.149423 50.221490 -10.665898 0 255 0 
-109.706629 8.396005 11.948253 0 255 0 
-112.295564 8.041937 22.273426 0 255 0 
-114.763327 7.625410 29.246006 0 255 0 
-116.943588 7.188499 29.666522 0 255 0 
-118.640803 6.880095 25.423454 0 255 0 
-125.039446 6.167677 2.319256 0 255 0 
-126.757278 5.888197 -2.416327 0 255 0 
-136.149888 4.321862 15.124474 0 255 0 
-138.064207 3.967436 13.385528 0 255 0 
-203.584680 -6.066768 3.211192 0 255 0 
-205.300064 -6.261415 0.795725 0 255 0 
-208.143408 -6.461630 -6.500911 0 255 0 
-209.601931 -6.583798 -10.883664 0 255 0 
-62.371733 7.775710 17.005666 0 255 0 
-106.836305 6.853036 5.850570 0 255 0 
-109.558891 6.445701 13.235437 0 255 0 
-112.169207 6.037292 23.660771 0 255 0 
-114.560477 5.544027 29.331842 0 255 0 
-118.271707 4.702963 23.555961 0 255 0 
-119.777891 4.318252 18.134576 0 255 0 
-190.064408 -7.248141 10.395524 0 255 0 
-191.881591 -7.451379 7.814676 0 255 0 
-193.717041 -7.644627 5.734437 0 255 0 
-195.561177 -7.879828 4.357901 0 255 0 
-203.087522 -8.725639 1.011693 0 255 0 
-204.667019 -8.851037 -2.513692 0 255 0 
-205.983945 -8.897544 -6.363282 0 255 0 
-207.282877 -8.877763 -10.199683 0 255 0 
-208.752698 -8.921901 -14.421412 0 255 0 
-51.547336 6.265004 -4.006113 0 255 0 
-53.290423 5.972826 -4.407497 0 255 0 
-106.569309 4.354351 5.159844 0 255 0 
-117.786698 2.269807 20.080852 0 255 0 
-119.237934 1.841509 14.159446 0 255 0 
-123.993345 1.260717 -5.634308 0 255 0 
-190.368098 -9.675544 17.398154 0 255 0 
-192.115219 -9.922475 14.351558 0 255 0 
-193.951584 -10.182197 12.412302 0 255 0 
-195.820423 -10.463620 11.602313 0 255 0 
-197.744037 -10.747625 10.799716 0 255 0 
-202.899906 -11.406360 2.442367 0 255 0 
-204.285616 -11.526725 -2.690258 0 255 0 
-205.473774 -11.602935 -7.579961 0 255 0 
209.392505 44.829788 -7.957402 0 255 0 
207.950500 44.566548 -13.217818 0 255 0 
-194.455731 -11.965387 19.693607 0 255 0 
-204.258418 -13.290743 -0.748093 0 255 0 
-205.393589 -13.369371 -5.828750 0 255 0 
-206.525421 -13.410958 -10.729517 0 255 0 
209.692374 42.763229 -9.608008 0 255 0 
208.191380 42.558111 -14.324641 0 255 0 
206.773292 42.335724 -20.161326 0 255 0 
205.156468 42.082380 -25.121176 0 255 0 
206.987379 40.293072 -20.714228 0 255 0 
205.266092 40.104161 -24.329609 0 255 0 
203.394646 39.884233 -26.324335 0 255 0 
-108.278490 -3.165415 4.803642 0 255 0 
-188.596768 -15.342002 21.981225 0 255 0 
-190.285613 -15.543298 19.609261 0 255 0 
-192.052302 -15.759088 18.163593 0 255 0 
-193.978864 -16.030754 17.832914 0 255 0 
-195.880753 -16.302302 16.961825 0 255 0 
-197.811316 -16.571229 15.593567 0 255 0 
212.828385 38.381860 -21.003719 0 255 0 
211.241079 38.205251 -24.813078 0 255 0 
209.532442 38.099476 -27.217739 0 255 0 
107.274054 22.061981 6.811887 0 255 0 
105.378957 21.734569 5.759466 0 255 0 
-107.500809 -5.118178 -3.481060 0 255 0 
-109.833809 -5.276553 0.462629 0 255 0 
-112.079720 -5.465362 3.870803 0 255 0 
-114.121964 -5.664921 5.247763 0 255 0 
-115.982587 -5.909566 3.583040 0 255 0 
-117.734765 -6.280566 -0.555508 0 255 0 
-119.355619 -6.551744 -6.760717 0 255 0 
-185.573752 -17.541085 11.169352 0 255 0 
-187.418814 -17.711419 10.058223 0 255 0 
-189.166246 -17.872300 8.594441 0 255 0 
-190.946459 -18.064332 7.532093 0 255 0 
-192.895480 -18.337048 7.715669 0 255 0 
-194.861603 -18.627362 8.091356 0 255 0 
232.511472 37.955932 7.704612 0 255 0 
230.792519 37.819447 3.714952 0 255 0 
229.172287 37.748165 -0.851601 0 255 0 
227.776615 37.775494 -5.757619 0 255 0 
226.497810 37.789287 -10.528327 0 255 0 
214.987024 36.303255 -20.225361 0 255 0 
213.490255 36.048172 -25.100168 0 255 0 
212.009888 35.802920 -30.093485 0 255 0 
210.461247 35.587795 -34.745223 0 255 0 
109.028324 20.647400 14.782276 0 255 0 
107.146817 20.231993 13.820242 0 255 0 
105.283504 19.875033 12.218145 0 255 0 
-106.841590 -6.990402 -6.306559 0 255 0 
-192.067877 -19.917554 1.720531 0 255 0 
-194.055638 -20.237792 2.518365 0 255 0 
-199.826402 -21.052048 -0.777488 0 255 0 
-201.300732 -21.158727 -4.846049 0 255 0 
230.371912 36.087767 -7.929831 0 255 0 
228.864852 36.053982 -12.886821 0 255 0 
227.489439 36.017428 -17.945703 0 255 0 
213.780720 33.839275 -24.185297 0 255 0 
108.786437 18.870728 22.646498 0 255 0 
106.944515 18.388250 21.125595 0 255 0 
-38.197310 -3.816919 2.154676 0 255 0 
-199.852538 -24.379955 -13.343087 0 255 0 
-201.163178 -24.424014 -15.986339 0 255 0 
-202.411060 -24.525282 -19.217811 0 255 0 
-182.751588 -25.005849 -3.243611 0 255 0 
-184.639742 -25.284014 -4.326972 0 255 0 
-186.538436 -25.558587 -5.019685 0 255 0 
-188.427020 -25.812054 -5.728128 0 255 0 
-190.424918 -26.101236 -6.191755 0 255 0 
-196.180042 -26.950271 -8.540685 0 255 0 
-197.893235 -27.159402 -11.793708 0 255 0 
-199.304814 -27.279222 -15.349099 0 255 0 
-200.548086 -27.323317 -18.418323 0 255 0 
-201.938152 -27.372699 -21.294473 0 255 0 
231.976217 30.636371 -18.701335 0 255 0 
-24.949815 -6.306871 -5.490965 0 255 0 
-26.889061 -6.365111 -5.681606 0 255 0 
-183.106817 -27.270286 6.565766 0 255 0 
-184.930378 -27.555422 4.935427 0 255 0 
-186.785730 -27.833590 3.792723 0 255 0 
-188.612554 -28.107374 2.344618 0 255 0 
-195.970321 -29.158418 -6.146790 0 255 0 
-197.631781 -29.367637 -9.701626 0 255 0 
233.979104 28.828041 -17.136744 0 255 0 
232.233869 28.519540 -20.403063 0 255 0 
230.662576 28.263603 -24.960505 0 255 0 
229.278034 28.017200 -30.695741 0 255 0 
-26.284618 -8.016933 -9.875519 0 255 0 
-28.266604 -7.996382 -9.297830 0 255 0 
-195.943755 -30.910896 -4.645474 0 255 0 
-197.578023 -31.078044 -8.611189 0 255 0 
230.968780 26.190992 -27.336845 0 255 0 
229.405895 26.030852 -30.942057 0 255 0 
227.683523 25.820462 -34.293079 0 255 0 
-25.568570 -9.693267 -15.614134 0 255 0 
-27.547035 -9.625834 -14.779341 0 255 0 
-29.606565 -9.556831 -13.287617 0 255 0 
-187.354397 -31.810783 15.161408 0 255 0 
-189.031840 -32.101409 11.603037 0 255 0 
-190.821003 -32.415475 7.830919 0 255 0 
-192.455196 -32.642152 3.415338 0 255 0 
237.297476 24.412291 -28.858683 0 255 0 
235.510559 24.235794 -31.978530 0 255 0 
233.669812 24.007499 -34.635835 0 255 0 
-26.657848 -11.272111 -22.164876 0 255 0 
-180.082740 -32.840758 26.222121 0 255 0 
-181.876228 -33.131741 24.144572 0 255 0 
-183.699610 -33.412621 22.178097 0 255 0 
-185.529967 -33.690460 19.719503 0 255 0 
-187.230326 -33.998260 16.178670 0 255 0 
-188.864471 -34.314304 11.727496 0 255 0 
241.384303 22.370742 -28.784908 0 255 0 
239.867013 22.107149 -33.893150 0 255 0 
238.313726 21.864118 -38.739932 0 255 0 
236.667860 21.646539 -43.091379 0 255 0 
234.917794 21.379138 -47.073666 0 255 0 
233.098969 21.122582 -50.633897 0 255 0 
-183.439809 -35.158620 23.407796 0 255 0 
-185.313042 -35.440276 21.304416 0 255 0 
-187.040649 -35.747279 17.715420 0 255 0 
256.270655 21.860893 8.706992 0 255 0 
254.691109 21.812386 4.204239 0 255 0 
253.154557 21.746305 -0.760231 0 255 0 
251.704789 21.645625 -6.343790 0 255 0 
250.395272 21.552347 -11.488606 0 255 0 
248.827531 21.382406 -16.576274 0 255 0 
-186.815093 -36.943107 19.118568 0 255 0 
-188.492724 -37.207666 14.510475 0 255 0 
-190.167469 -37.526163 8.819445 0 255 0 
-191.588970 -37.781157 2.273047 0 255 0 
-192.947628 -38.073789 -4.016519 0 255 0 
-194.493024 -38.380587 -9.614857 0 255 0 
-196.071830 -38.645007 -14.315886 0 255 0 
-197.528614 -38.882475 -17.856029 0 255 0 
256.426784 19.901721 -9.758839 0 255 0 
254.789572 19.796212 -14.312099 0 255 0 
253.185275 19.678290 -18.821071 0 255 0 
-191.323757 -38.853925 2.631968 0 255 0 
-190.586478 -40.605491 0.750133 0 255 0 
-191.885133 -40.705133 -5.272812 0 255 0 
-193.362651 -40.910259 -12.004031 0 255 0 
-195.041494 -41.145436 -17.245284 0 255 0 
266.687391 17.849374 -6.964094 0 255 0 
264.815133 17.533335 -9.697217 0 255 0 
263.110326 17.298969 -12.964816 0 255 0 
-189.481706 -44.110431 -5.990816 0 255 0 
-190.668083 -44.210087 -12.156115 0 255 0 
261.860506 15.120768 -19.631010 0 255 0 
260.235292 14.882291 -23.985161 0 255 0 
258.547935 14.644820 -27.670522 0 255 0 
83.802594 -7.146017 17.043876 0 255 0 
81.797394 -7.504487 16.989939 0 255 0 
79.882758 -7.864273 15.953975 0 255 0 
-176.501917 -44.502631 9.513063 0 255 0 
-178.328933 -44.757617 7.563197 0 255 0 
260.530754 12.720514 -25.526972 0 255 0 
258.806959 12.490664 -28.867252 0 255 0 
257.014182 12.258366 -31.607990 0 255 0 
255.230222 12.022916 -34.262574 0 255 0 
83.790713 -9.781754 22.054760 0 255 0 
81.795038 -10.054086 21.425836 0 255 0 
79.892634 -10.312287 19.734758 0 255 0 
255.418430 9.771777 -33.786088 0 255 0 
253.612801 9.610449 -35.443910 0 255 0 
89.730095 -11.322563 30.676303 0 255 0 
83.624382 -12.436206 30.282959 0 255 0 
81.684542 -12.709753 28.582185 0 255 0 
261.166126 7.992946 -27.545552 0 255 0 
259.503178 7.809138 -31.383450 0 255 0 
257.743972 7.630045 -34.247054 0 255 0 
89.289951 -13.740227 42.120965 0 255 0 
87.224516 -14.179673 41.649323 0 255 0 
85.304961 -14.511461 39.272025 0 255 0 
-187.587459 -52.626620 -0.246627 0 255 0 
-188.931119 -52.603192 -6.619837 0 255 0 
-190.085037 -52.734191 -13.237434 0 255 0 
266.124245 6.563629 -12.853608 0 255 0 
264.527631 6.291483 -17.846213 0 255 0 
262.969038 6.019639 -22.591130 0 255 0 
261.396577 5.768781 -27.074949 0 255 0 
259.807730 5.513927 -31.827575 0 255 0 
84.938137 -16.939701 46.578077 0 255 0 
81.331078 -17.506392 39.056306 0 255 0 
79.573212 -17.729078 35.106350 0 255 0 
77.881450 -17.959253 31.074357 0 255 0 
76.300207 -18.125138 26.313684 0 255 0 
74.694373 -18.285892 21.637363 0 255 0 
72.892123 -18.464091 18.136703 0 255 0 
62.233574 -19.616912 1.986224 0 255 0 
52.680102 -21.111145 -1.558046 0 255 0 
5.725366 -26.191821 4.839286 0 255 0 
-188.187824 -54.939734 -9.870687 0 255 0 
-189.260800 -55.031954 -16.429325 0 255 0 
-190.560953 -55.222614 -24.245487 0 255 0 
280.062867 6.916094 36.297935 0 255 0 
278.682563 6.674824 29.781676 0 255 0 
277.317339 6.461455 23.058550 0 255 0 
276.054454 6.276520 16.956119 0 255 0 
274.861358 6.107795 11.464338 0 255 0 
262.962341 4.030676 -19.097249 0 255 0 
261.397016 3.740968 -24.131306 0 255 0 
259.780358 3.457873 -28.618496 0 255 0 
79.408005 -20.144448 39.088978 0 255 0 
77.828492 -20.326764 33.663937 0 255 0 
76.343560 -20.421392 28.333148 0 255 0 
74.810642 -20.498344 23.275878 0 255 0 
64.048685 -21.526441 6.435158 0 255 0 
62.417255 -21.559520 3.199806 0 255 0 
60.623597 -21.690861 1.778416 0 255 0 
52.822640 -22.766983 -0.131543 0 255 0 
6.227912 -28.008011 2.784105 0 255 0 
4.516959 -27.931204 0.064111 0 255 0 
280.499722 4.279235 36.035323 0 255 0 
279.169026 4.089953 29.462135 0 255 0 
277.805726 3.974573 23.272935 0 255 0 
276.514894 3.911308 17.780695 0 255 0 
275.225801 3.848869 12.705274 0 255 0 
62.685829 -23.633021 3.295642 0 255 0 
53.175173 -24.364401 -0.383776 0 255 0 
23.513820 -28.513104 -9.213786 0 255 0 
21.487392 -28.655867 -9.654524 0 255 0 
19.345928 -28.854864 -7.462566 0 255 0 
6.731583 -30.097520 0.652169 0 255 0 
5.072838 -30.110539 -2.695222 0 255 0 
62.953974 -25.949272 4.621683 0 255 0 
29.999392 -30.240452 5.058026 0 255 0 
28.569961 -30.494460 0.279985 0 255 0 
27.220663 -30.675001 -4.474974 0 255 0 
5.709138 -32.686767 -7.485258 0 255 0 
3.922417 -32.696323 -9.795062 0 255 0 
-4.565121 -33.580787 -5.094384 0 255 0 
-170.489235 -58.504606 27.627788 0 255 0 
-172.239881 -58.606200 25.234540 0 255 0 
-173.996741 -58.753625 23.034942 0 255 0 
-175.848012 -58.943811 21.302533 0 255 0 
-177.633375 -59.149083 18.522971 0 255 0 
-179.385603 -59.360450 14.844515 0 255 0 
-181.196299 -59.583031 9.866721 0 255 0 
-182.764731 -59.709851 3.667665 0 255 0 
63.265780 -28.078285 6.862771 0 255 0 
61.576860 -28.069745 3.386763 0 255 0 
53.931817 -28.896187 -2.051700 0 255 0 
30.392442 -32.785936 2.822701 0 255 0 
6.533694 -35.127212 -15.556579 0 255 0 
4.798929 -35.109942 -18.572171 0 255 0 
2.922115 -35.166459 -20.201279 0 255 0 
-1.232806 -35.486007 -20.615452 0 255 0 
-3.531781 -35.818085 -17.037303 0 255 0 
-175.189853 -60.603760 17.829288 0 255 0 
-177.002241 -60.828676 15.280807 0 255 0 
-178.737691 -61.038410 11.402584 0 255 0 
-180.529663 -61.254665 6.470288 0 255 0 
-182.122918 -61.389333 0.200939 0 255 0 
61.869334 -30.103434 5.804904 0 255 0 
59.894753 -30.354819 5.511822 0 255 0 
