ply
format ascii 1.0
element vertex 222
property float x
property float y
property float z
property uchar blue
property uchar green
property uchar red
end_header
140.796465 -46.177929 -58.767672 0 255 0 
-120.909959 -138.243627 -67.259753 0 255 0 
161.132062 -229.548858 -84.896055 0 255 0 
-67.189768 138.278095 77.133352 0 255 0 
272.537586 -2.965935 -69.388950 0 255 0 
227.665304 -14.903952 -71.844006 0 255 0 
-131.307139 -145.559589 -67.362579 0 255 0 
77.974111 190.607665 -3.632374 0 255 0 
-85.813553 67.467072 55.106948 0 255 0 
-221.050816 66.091441 120.219997 0 255 0 
-82.443314 152.797623 85.281462 0 255 0 
-215.146917 52.819759 107.606547 0 255 0 
15.580367 74.588509 -29.938862 0 255 0 
298.953366 6.217658 57.206102 0 255 0 
95.396602 177.279492 -37.695549 0 255 0 
42.917387 64.576503 -48.759211 0 255 0 
-107.501426 89.837626 13.503966 0 255 0 
58.670578 -77.734221 -84.837389 0 255 0 
267.153870 25.097993 -92.015644 0 255 0 
98.809224 -64.701491 -109.882439 0 255 0 
50.918472 213.387024 10.924409 0 255 0 
64.710023 202.215234 -3.480576 0 255 0 
-207.940636 36.827113 96.526086 0 255 0 
12.694991 -94.439405 -120.269422 0 255 0 
-122.507293 18.851126 63.655358 0 255 0 
-199.764254 22.324837 90.415746 0 255 0 
-89.861305 165.204611 81.954354 0 255 0 
25.122806 72.001877 48.553144 0 255 0 
77.506598 -248.034502 -57.184150 0 255 0 
186.351893 -31.375308 -90.135851 0 255 0 
-145.425951 -127.302737 -97.869499 0 255 0 
-137.249959 -142.370425 -101.945311 0 255 0 
-88.781474 53.262973 -53.128294 0 255 0 
71.147791 157.814142 -13.165036 0 255 0 
-191.108399 5.056229 86.361953 0 255 0 
127.866007 -253.075289 -117.614724 0 255 0 
112.780005 77.258847 104.218448 0 255 0 
130.443341 112.577877 56.977532 0 255 0 
-98.078431 -133.901284 -117.337961 0 255 0 
-217.274873 -170.232484 -5.190403 0 255 0 
-96.529251 175.684062 106.167748 0 255 0 
5.645837 137.626630 89.775585 0 255 0 
-200.934607 -177.424075 -16.955189 0 255 0 
34.670474 70.476021 -7.549150 0 255 0 
-134.905785 20.086469 6.029019 0 255 0 
138.630492 -255.561957 -79.963350 0 255 0 
171.847096 84.561496 -7.122943 0 255 0 
65.053658 -8.520124 15.855455 0 255 0 
-141.757457 -109.782796 -23.497816 0 255 0 
-164.434079 -55.395179 72.153513 0 255 0 
-153.350067 -96.576336 -95.284063 0 255 0 
-71.848488 38.651233 -49.718484 0 255 0 
47.693004 78.242633 42.268301 0 255 0 
-13.027069 128.965829 -31.047907 0 255 0 
5.812166 77.172722 5.552584 0 255 0 
240.149602 42.157009 -71.025889 0 255 0 
-20.012683 2.776758 -35.602440 0 255 0 
-54.960713 121.776764 37.794016 0 255 0 
175.553407 -225.176698 19.078825 0 255 0 
128.753824 -244.808670 -51.342752 0 255 0 
-186.167855 -27.651625 -37.346039 0 255 0 
13.376781 -18.855917 -48.048043 0 255 0 
-54.074493 26.804320 -20.100630 0 255 0 
-10.303461 -103.935277 -2.650480 0 255 0 
74.285553 -77.924858 -77.157981 0 255 0 
-113.693110 113.471354 122.971635 0 255 0 
134.448112 70.129422 61.762322 0 255 0 
-98.951947 89.812540 97.878481 0 255 0 
-43.056468 -116.089844 -103.875222 0 255 0 
88.267914 159.324708 102.199243 0 255 0 
119.368444 159.544512 2.638450 0 255 0 
-182.331164 -13.080890 42.602706 0 255 0 
-102.740358 180.768092 86.078624 0 255 0 
-169.571123 -73.645871 -85.844776 0 255 0 
92.141972 79.024646 -35.145451 0 255 0 
159.141292 -248.345413 14.792301 0 255 0 
27.326706 148.073651 -4.659087 0 255 0 
-212.563217 -153.650395 38.723111 0 255 0 
179.484706 -209.991631 -32.832556 0 255 0 
193.628576 70.779754 -29.814907 0 255 0 
72.842066 68.715680 69.062189 0 255 0 
-100.564175 76.057109 -25.926256 0 255 0 
165.749215 -41.762761 28.459961 0 255 0 
104.052149 143.479779 63.724946 0 255 0 
128.216142 -54.838272 37.508617 0 255 0 
-224.323244 -172.353140 -4.980580 0 255 0 
-115.561696 29.941809 94.379900 0 255 0 
69.201213 97.478994 78.691682 0 255 0 
-81.345425 142.710473 -1.557138 0 255 0 
67.440386 77.110230 -24.870354 0 255 0 
90.083289 11.416403 40.879928 0 255 0 
282.857767 23.950006 37.751384 0 255 0 
108.441656 35.778470 51.997974 0 255 0 
114.814885 165.451211 3.679927 0 255 0 
31.165964 -18.353751 16.447980 0 255 0 
-216.127269 38.606125 36.082362 0 255 0 
-177.221578 -54.939651 -35.799139 0 255 0 
-16.105821 138.478130 12.824338 0 255 0 
-194.820493 -17.008446 -6.629718 0 255 0 
277.309862 -44.278215 12.956465 0 255 0 
-182.634030 -41.268177 -50.156969 0 255 0 
251.681199 -11.381745 57.257633 0 255 0 
-203.425375 7.904268 12.444692 0 255 0 
39.604049 -86.749086 23.222539 0 255 0 
81.737602 4.034349 104.035048 0 255 0 
-120.559665 31.819786 46.541461 0 255 0 
-130.418025 -131.778112 -66.300360 0 255 0 
-227.322288 63.141546 48.276783 0 255 0 
-142.890479 -119.581731 -97.451103 0 255 0 
-90.359835 152.045391 26.306098 0 255 0 
250.958600 -88.040922 44.714799 0 255 0 
299.599569 -8.839781 -0.105798 0 255 0 
-161.228727 -88.593746 -61.507095 0 255 0 
103.469737 136.822995 18.489306 0 255 0 
167.896365 -236.188675 4.576343 0 255 0 
-14.644385 92.792609 -17.254504 0 255 0 
199.930822 -175.658875 35.017392 0 255 0 
-26.903540 52.964721 82.757070 0 255 0 
-38.569451 -193.448297 -116.658587 0 255 0 
-75.844398 132.804705 -21.489224 0 255 0 
-103.458999 9.799051 28.041470 0 255 0 
-133.522984 -156.682001 -22.200260 0 255 0 
-87.040259 -172.925818 -133.021657 0 255 0 
-28.221155 9.255996 492.548635 0 0 255 
-27.887224 9.233697 492.719492 0 0 255 
-27.376252 9.499481 493.018632 0 0 255 
-26.728913 9.807339 493.371293 0 0 255 
-26.666580 9.920259 492.880627 0 0 255 
-26.626970 9.945699 492.392456 0 0 255 
-26.479754 10.066992 492.316799 0 0 255 
-26.480924 10.030484 491.825001 0 0 255 
-26.373821 9.997320 491.312255 0 0 255 
-26.251916 9.990071 490.422438 0 0 255 
-26.208694 9.940292 490.226859 0 0 255 
-26.128626 9.914041 490.435123 0 0 255 
-26.100329 9.741655 490.322439 0 0 255 
-26.061829 9.633370 490.347243 0 0 255 
-25.971238 9.435088 490.309105 0 0 255 
-25.870169 9.163856 490.368178 0 0 255 
-25.846479 8.990523 490.394656 0 0 255 
-25.585953 8.903701 489.614703 0 0 255 
-25.514729 8.823460 489.762264 0 0 255 
-25.481077 8.655949 489.892017 0 0 255 
-25.382085 8.469182 490.166030 0 0 255 
-25.309464 8.270842 490.514474 0 0 255 
-25.142142 7.977713 490.746572 0 0 255 
-25.065407 7.679572 491.049797 0 0 255 
-24.927875 7.377357 491.413893 0 0 255 
-24.804737 7.076330 491.831543 0 0 255 
-24.656894 6.739547 492.332028 0 0 255 
-24.375362 6.430029 492.288132 0 0 255 
-24.336162 5.959728 493.568489 0 0 255 
-24.210184 5.596781 493.855425 0 0 255 
-24.228358 5.206577 495.119526 0 0 255 
-24.201658 4.800896 495.843059 0 0 255 
-24.070664 4.437117 497.031244 0 0 255 
-23.937807 4.028882 497.103754 0 0 255 
-23.792315 3.594620 498.034852 0 0 255 
-23.803811 3.105933 498.501938 0 0 255 
-22.774126 2.872428 497.485855 0 0 255 
-20.381731 2.676580 496.816957 0 0 255 
-20.191862 2.152259 497.934059 0 0 255 
-19.392088 1.947888 498.177056 0 0 255 
-17.763767 1.775649 498.347854 0 0 255 
-16.912111 1.469034 499.077427 0 0 255 
-16.560512 1.050958 499.822979 0 0 255 
-15.925148 0.701456 500.361715 0 0 255 
-15.566913 0.364561 501.769420 0 0 255 
-14.525402 0.218477 502.240332 0 0 255 
-13.324353 0.104656 503.169591 0 0 255 
-11.602631 -0.086115 503.164657 0 0 255 
-10.323476 -0.274961 503.417925 0 0 255 
-9.070131 -0.283203 503.708063 0 0 255 
-8.228021 -0.512227 502.933061 0 0 255 
-7.571252 -0.987020 502.834757 0 0 255 
-7.002743 -1.268645 503.621433 0 0 255 
-6.487481 -1.702541 502.657218 0 0 255 
-5.557075 -2.313078 502.638299 0 0 255 
-5.323295 -2.670133 503.243723 0 0 255 
-4.477454 -2.839689 503.853799 0 0 255 
-3.592159 -3.106958 504.201917 0 0 255 
-2.102719 -3.143935 504.095296 0 0 255 
-1.258669 -3.386257 503.691557 0 0 255 
-0.618240 -3.559572 503.139774 0 0 255 
-0.102957 -3.821025 502.542109 0 0 255 
0.374912 -4.023705 503.065688 0 0 255 
0.764147 -4.336366 503.050018 0 0 255 
1.555137 -4.533885 500.489353 0 0 255 
2.541793 -4.833291 500.980762 0 0 255 
3.511599 -5.023353 500.436829 0 0 255 
4.282729 -5.280140 500.795291 0 0 255 
6.433277 -5.376375 500.161423 0 0 255 
11.982239 -5.094729 498.927996 0 0 255 
14.535152 -5.354892 500.058088 0 0 255 
16.907042 -5.394064 499.733160 0 0 255 
21.398438 -5.185793 499.419638 0 0 255 
23.597357 -5.172197 499.821866 0 0 255 
25.739786 -5.246488 499.636288 0 0 255 
29.476449 -4.914925 499.886249 0 0 255 
29.909575 -5.344022 500.698172 0 0 255 
32.141628 -5.751533 500.360474 0 0 255 
34.026955 -5.857087 500.906333 0 0 255 
34.496507 -6.297419 501.131771 0 0 255 
35.104878 -6.697914 502.788401 0 0 255 
37.534873 -6.733572 503.160953 0 0 255 
39.573295 -7.203756 502.983041 0 0 255 
41.357382 -7.401840 502.800313 0 0 255 
43.220775 -7.661606 503.059052 0 0 255 
44.523249 -7.771680 503.600451 0 0 255 
46.355644 -8.132837 503.551886 0 0 255 
47.802047 -8.214757 504.052129 0 0 255 
49.670820 -8.477770 504.856404 0 0 255 
51.228394 -8.591842 505.237101 0 0 255 
52.657885 -8.703410 506.073754 0 0 255 
53.742551 -8.809484 506.798532 0 0 255 
54.910302 -8.956119 507.711232 0 0 255 
55.775641 -9.185185 507.829268 0 0 255 
56.273934 -9.255719 507.095433 0 0 255 
57.105008 -9.458810 508.641257 0 0 255 
57.696072 -9.758952 509.213967 0 0 255 
58.153884 -9.850062 509.629255 0 0 255 
58.407240 -10.268237 510.503825 0 0 255 
